1526
497682.11 5420011.95 325.66 37
497681.83 5420011.31 325.72 32
497681.83 5420010.98 325.75 22
497682.83 5420011.31 325.72 33
497682.13 5420010.91 325.75 28
497682.13 5420011.25 325.69 30
497689 5419999.66 328.85 1
497688.23 5420001.71 329.4 1
497689.95 5420001.16 330.08 1
497688.98 5420000.4 329.33 1
497689.96 5420000.8 329.91 2
497688.01 5420000.46 329.11 1
497687.99 5420001.2 329.56 1
497689.97 5420000.43 329.67 1
497688.03 5419999.7 328.62 1
497687.98 5420001.79 329.41 1
497688.97 5420000.77 329.51 1
497687.98 5420001.52 329.59 2
497688.99 5420000.05 329.12 1
497688.02 5420000.08 328.85 1
497689.94 5420001.54 330.31 1
497695 5420011.04 327.11 118
497695.71 5420011.66 326.63 96
497694.98 5420012.06 326.96 123
497696.01 5420011.2 327.06 37
497695.71 5420011.41 326.92 81
497694.74 5420011.21 327.06 152
497695.71 5420011.16 327.27 162
497694.74 5420010.89 327.15 154
497694.73 5420011.87 327.07 158
497694.99 5420011.43 327.26 121
497694.73 5420011.56 327.19 157
497694.99 5420011.74 327.06 138
497699.98 5419995.24 329.43 1
497699.19 5419997.07 330.26 1
497699.97 5419995.6 329.63 1
497700.95 5419996.71 330.59 1
497699.21 5419996.3 329.85 1
497699.96 5419996.32 330.05 1
497699.94 5419997.06 330.5 1
497691.28 5419995.8 328.6 3
497692.25 5419995.79 328.61 2
497692.2 5419997.26 330.44 2
497691.04 5419995.93 328.59 5
497692.02 5419995.44 328.62 23
497691.97 5419997.15 330.4 6
497690.26 5419997.34 328.59 3
497683.89 5420007.91 325.87 33
497685.16 5420007.83 325.85 76
497684.9 5420007.94 325.83 33
497685.16 5420008.17 325.83 26
497684.88 5420008.59 325.82 30
497685.15 5420008.52 325.81 28
497685.19 5420006.92 324.99 18
497683.88 5420008.55 325.85 26
497684.92 5420006.98 325.94 124
497683.9 5420007.59 325.91 38
497684.16 5420008.08 325.85 27
497684.91 5420007.3 325.88 81
497684.17 5420007.39 325.93 59
497685.17 5420007.49 325.89 28
497685.2 5420006.57 324.97 13
497684.15 5420008.41 325.83 23
497684.16 5420007.73 325.87 38
497683.89 5420008.23 325.88 33
497684.89 5420008.27 325.85 35
497684.9 5420007.62 325.85 34
497684.02 5420001.53 328.56 1
497685.03 5420000.94 328.51 1
497685.27 5420001.44 328.85 1
497685.01 5420001.68 328.96 1
497685.02 5420001.31 328.69 1
497685.25 5420001.84 329.1 1
497699.07 5420005.96 331.19 7
497698.06 5420004.88 331.37 6
497699.08 5420004.97 331.29 6
497699.07 5420005.64 331.26 7
497697.06 5420005.79 331.32 8
497697.08 5420004.15 331.49 14
497698.04 5420006.19 331.21 6
497697.79 5420005.36 331.3 17
497697.08 5420004.48 331.46 15
497698.07 5420004.22 331.43 3
497697.79 5420005.06 331.4 9
497697.07 5420004.81 331.44 6
497697.05 5420006.13 331.29 7
497698.8 5420005.54 331.26 13
497697.77 5420006.3 331.24 15
497698.06 5420004.55 331.39 5
497697.78 5420005.99 331.27 11
497698.82 5420004.3 331.38 10
497697.78 5420005.68 331.29 9
497697.07 5420005.14 331.39 5
497699.09 5420004.31 331.37 9
497698.81 5420004.92 331.33 13
497697.8 5420004.44 331.43 16
497697.81 5420004.14 331.49 15
497698.05 5420005.54 331.31 3
497697.8 5420004.75 331.42 10
497698.81 5420005.22 331.29 13
497698.06 5420005.21 331.34 5
497697.06 5420005.47 331.35 6
497699.07 5420005.31 331.28 5
497699.08 5420004.65 331.33 6
497698.79 5420006.16 331.22 9
497698.05 5420005.88 331.28 6
497698.8 5420005.85 331.22 10
497699.06 5420006.29 331.17 6
497695.04 5420006.29 330.37 1
497695.05 5420005.99 330.55 2
497694.8 5420006.18 330.48 2
497687.94 5420005.43 324.92 64
497689.93 5420004.64 324.97 34
497689.91 5420005.28 324.98 34
497689.2 5420005.78 325 24
497689.92 5420004.96 324.98 32
497688.89 5420006.31 325.03 37
497689.21 5420005.08 324.97 19
497689.93 5420004.31 324.97 31
497689.9 5420005.95 325.05 40
497689.19 5420006.13 325.01 20
497689.91 5420005.61 324.99 29
497689.89 5420006.28 325.05 31
497688.19 5420006.01 324.99 23
497688.92 5420004.98 324.93 47
497689.21 5420005.42 324.98 20
497688.2 5420005.66 324.97 19
497688.91 5420005.65 324.98 36
497687.93 5420006.1 324.99 47
497688.91 5420005.32 324.98 32
497688.9 5420005.98 325.02 37
497688.2 5420005.31 324.88 42
497687.93 5420005.77 324.98 43
497689.22 5420004.72 324.9 24
497696.16 5419998.53 330.75 2
497695.91 5419998 330.7 4
497695.9 5419998.31 330.74 4
497695.88 5419999.58 330.85 1
497696.17 5419998.19 330.71 2
497696.16 5419998.87 330.78 3
497696.15 5419999.21 330.85 3
497695.9 5419998.64 330.8 3
497691.99 5420012.05 325.8 19
497691.04 5420010.93 325.64 25
497692.01 5420011.33 325.71 19
497691.73 5420011.66 325.75 44
497691.73 5420012 325.77 41
497692 5420011.69 325.74 19
497692.01 5420010.96 325.66 17
497691.74 5420011.33 325.72 43
497691.75 5420010.98 325.67 35
497691.03 5420011.3 325.69 28
497679.07 5420006.6 330.33 127
497679.79 5420006.78 330.05 173
497680.12 5420006.58 330.1 168
497679.78 5420007.38 329.7 199
497679.05 5420007.54 329.84 144
497679.06 5420007.22 330.02 173
497680.1 5420008.09 329.22 140
497679.77 5420007.69 329.53 185
497679.04 5420007.84 329.65 162
497680.84 5420008.25 328.93 181
497679.76 5420008.3 329.18 196
497679.78 5420007.08 329.86 200
497680.87 5420006.72 329.81 187
497680.86 5420007.32 329.43 190
497680.11 5420007.48 329.57 156
497679.06 5420006.91 330.17 140
497679.04 5420008.17 329.52 153
497680.86 5420007.01 329.62 181
497680.11 5420007.16 329.69 180
497680.85 5420007.64 329.28 186
497679.03 5420008.48 329.32 142
497680.09 5420008.41 329.08 148
497679.77 5420007.99 329.33 190
497680.83 5420008.57 328.77 188
497680.1 5420007.78 329.38 155
497679.8 5420006.46 330.21 151
497680.88 5420006.39 329.94 194
497680.85 5420007.95 329.12 154
497680.12 5420006.86 329.88 185
497679.75 5420008.61 329.01 177
497692.77 5420009.64 325.61 41
497694.02 5420009.8 325.67 19
497694.03 5420009.46 325.67 20
497693.74 5420009.57 325.7 29
497693.73 5420010.56 325.71 47
497692.76 5420010.3 325.64 44
497693.03 5420010.4 325.67 23
497693.04 5420009.76 325.95 77
497692.78 5420009.32 325.69 92
497693.74 5420009.89 325.67 27
497692.77 5420009.98 325.64 42
497694.02 5420010.16 325.67 25
497693.03 5420010.75 325.68 21
497693.04 5420010.04 325.63 27
497693.73 5420010.23 325.67 44
497692.76 5420010.64 325.65 46
497680.28 5420001.14 327.58 100
497679.95 5420001.73 327.82 105
497681.05 5420000.57 327.46 19
497679.22 5420001.68 327.57 105
497678.88 5420001.59 327.49 9
497679.96 5420001.32 327.58 127
497680.27 5420001.54 327.79 92
497681.01 5420001.79 328.15 125
497681.04 5420000.98 327.7 142
497681.03 5420001.38 327.92 130
497695.71 5420011.82 325.88 223
497696.75 5420010.89 325.91 50
497696.01 5420011.27 325.87 166
497696.75 5420011.23 325.93 48
497694.73 5420011.96 326.05 117
497696.01 5420011.63 325.93 164
497694.73 5420012.24 325.87 128
497694.99 5420012.15 325.86 142
497686.12 5420009.97 325.7 44
497686.83 5420009.56 325.22 52
497685.82 5420009.81 325.74 39
497686.13 5420009.29 325.78 37
497685.83 5420009.16 325.78 119
497687.11 5420008.86 325.14 27
497685.83 5420009.48 325.74 41
497686.12 5420009.64 325.73 96
497685.84 5420008.85 325.82 62
497686.84 5420008.88 325.13 51
497686.15 5420008.77 325.11 40
497687.09 5420009.59 325.23 24
497685.81 5420010.13 325.72 37
497687.86 5420009.1 325.24 50
497686.84 5420009.22 325.17 46
497687.1 5420009.22 325.17 25
497697.17 5419998 330.74 2
497697.89 5419999.06 331.14 1
497697.16 5419999 330.83 5
497697.18 5419997.66 330.71 3
497696.91 5419998.99 330.83 5
497697.16 5419998.67 330.82 7
497698.91 5419998.63 331.18 1
497697.15 5419999.41 331.13 1
497696.92 5419998.36 330.76 7
497697.91 5419998.03 330.76 3
497696.93 5419998.04 330.75 9
497698.16 5419998.09 330.79 4
497696.92 5419998.68 330.8 7
497698.92 5419998.26 330.96 1
497697.9 5419998.67 330.86 2
497698.9 5419999.35 331.6 1
497696.93 5419997.74 330.73 3
497698.16 5419997.73 330.69 1
497698.15 5419998.42 330.85 5
497697.17 5419998.35 330.8 3
497696.94 5419997.43 330.7 5
497697.92 5419997.41 330.74 3
497698.9 5419998.98 331.38 1
497697.91 5419997.72 330.76 8
497696.9 5419999.35 331 1
497697.88 5419999.43 331.38 1
497697.9 5419998.34 330.8 11
497698.13 5419999.58 331.52 4
497693.7 5420011.92 325.84 45
497693.69 5420012.61 325.9 42
497693.99 5420011.6 325.84 93
497693.72 5420010.91 325.77 138
497692.73 5420012.02 325.83 45
497693.01 5420011.48 325.75 26
497692.74 5420011.32 325.74 41
497692.71 5420013.02 325.86 64
497693 5420012.21 325.86 29
497692.99 5420012.57 325.86 30
497692.72 5420012.69 325.87 52
497692.99 5420012.92 325.87 42
497692.75 5420010.98 325.68 43
497693.99 5420011.97 325.85 45
497693.98 5420012.68 325.91 34
497693.01 5420011.84 325.79 31
497693.98 5420012.33 325.89 33
497693.71 5420011.6 325.84 49
497692.72 5420012.34 325.85 43
497693.69 5420012.27 325.87 46
497693.71 5420011.24 325.76 112
497693.02 5420011.12 325.72 24
497692.73 5420011.67 325.79 42
497691.79 5420005.91 331.54 1
497690.83 5420004.69 332.51 1
497691.81 5420004.51 332.34 1
497691.8 5420005.62 331.7 1
497691.8 5420005.35 331.9 1
497691.82 5420004.24 332.52 1
497691.81 5420004.79 332.17 1
497690.81 5420005.53 332.11 2
497690.82 5420004.99 332.43 2
497692.06 5420004.94 331.99 1
497691.79 5420006.18 331.4 1
497691.08 5420004.73 332.49 1
497690.82 5420005.25 332.24 1
497690.84 5420004.31 332.24 1
497691.8 5420005.07 332.05 1
497679.84 5420004.92 329.52 129
497679.12 5420004.95 329.4 101
497680.91 5420004.99 329.88 150
497679.87 5420004.12 329.14 132
497679.83 5420005.31 329.77 136
497680.94 5420004.19 329.46 131
497680.17 5420004.72 329.55 115
497679.08 5420006.17 330.05 115
497680.16 5420005.1 329.74 122
497680.15 5420005.51 329.98 119
497680.13 5420006.27 330.24 112
497679.14 5420004.13 328.95 115
497680.9 5420005.4 330.14 146
497680.18 5420004.32 329.35 102
497679.8 5420006.13 330.23 154
497679.1 5420005.35 329.62 86
497680.88 5420006.09 330.12 191
497680.14 5420005.91 330.19 145
497680.89 5420005.8 330.33 208
497679.09 5420005.76 329.83 100
497679.82 5420005.73 330.01 134
497680.92 5420004.59 329.65 157
497679.13 5420004.54 329.18 118
497679.86 5420004.52 329.34 132
497690.84 5420007.33 325.2 34
497692.07 5420008.08 325.34 18
497692.07 5420007.84 325.8 76
497690.85 5420007 325.17 42
497692.06 5420008.44 325.4 18
497690.12 5420006.54 325.05 19
497690.85 5420006.66 325.14 38
497691.08 5420008.4 325.34 18
497690.82 5420008.34 325.33 38
497691.81 5420007.92 325.35 42
497690.83 5420007.67 325.22 27
497691.79 5420008.6 325.43 42
497691.82 5420007.34 325.64 114
497691.1 5420007.69 325.24 20
497691.11 5420007.33 325.21 23
497691.82 5420007.59 325.3 42
497691.09 5420008.04 325.28 19
497690.83 5420008 325.29 37
497691.12 5420006.62 325.13 23
497691.8 5420008.26 325.38 39
497691.11 5420006.96 325.16 24
497696.08 5420003.72 331.61 9
497696.07 5420004.05 331.59 7
497695.81 5420003.28 331.93 1
497696.82 5420003.87 331.57 18
497695.81 5420003.01 332.1 2
497696.85 5420002.18 332.31 1
497695.82 5420002.74 332.26 2
497695.09 5420002.08 332.33 115
497695.8 5420003.84 331.63 16
497694.83 5420003.43 332.14 1
497694.85 5420002.17 332.16 1
497694.84 5420003.15 332.28 1
497695.82 5420002.48 332.46 4
497696.84 5420003 331.83 1
497695.82 5420002.15 332.4 1
497694.83 5420003.68 331.95 1
497696.83 5420003.56 331.6 16
497695.81 5420003.55 331.74 1
497696.84 5420002.72 331.98 1
497694.84 5420002.88 332.49 2
497696.84 5420002.46 332.15 1
497696.85 5420001.92 332.53 1
497696.83 5420003.26 331.62 19
497679.17 5420003.31 328.47 108
497679.89 5420003.33 328.7 117
497680.2 5420003.92 329.14 120
497679.91 5420002.92 328.47 121
497679.16 5420003.72 328.74 97
497679.88 5420003.72 328.93 106
497680.23 5420002.72 328.43 116
497680.95 5420003.78 329.22 128
497680.21 5420003.53 328.93 101
497680.96 5420003.38 328.98 132
497680.99 5420002.58 328.58 116
497680.22 5420003.12 328.66 118
497680.98 5420002.98 328.77 133
497681.31 5420000.76 327.69 90
497683.29 5420000.99 327.99 1
497681.29 5420001.55 328.1 87
497683.08 5420000.15 327.47 2
497681.3 5420001.15 327.86 90
497683.05 5420001.26 328.14 1
497683.31 5420000.2 327.54 1
497682.04 5420001.54 328.31 121
497683.04 5420001.64 328.36 1
497682.05 5420001.17 328.11 148
497682.07 5420000.71 327.54 11
497698.08 5420003.57 331.52 7
497697.81 5420003.82 331.5 16
497698.09 5420002.93 331.59 10
497699.09 5420003.99 331.42 6
497697.09 5420003.5 331.58 7
497697.83 5420002.09 332.08 2
497698.09 5420002.32 331.87 1
497698.08 5420003.24 331.54 8
497698.85 5420002.47 331.63 22
497698.85 5420001.91 331.92 1
497698.83 5420003.38 331.51 11
497699.11 5420002.35 331.59 17
497698.84 5420003.07 331.54 15
497698.09 5420002.04 332.05 1
497699.1 5420003.65 331.42 9
497699.1 5420003.34 331.48 8
497698.85 5420002.17 331.7 1
497697.82 5420003.21 331.57 17
497697.82 5420003.52 331.55 12
497698.07 5420003.89 331.46 4
497697.83 5420002.63 331.71 1
497697.82 5420002.91 331.62 18
497699.11 5420002.69 331.59 9
497697.83 5420002.37 331.94 2
497697.09 5420003.19 331.63 15
497698.84 5420002.77 331.57 14
497698.83 5420003.69 331.48 8
497698.82 5420004 331.42 12
497698.09 5420002.61 331.65 1
497697.08 5420003.83 331.56 12
497699.1 5420003.01 331.52 10
497697.1 5420002.6 331.95 1
497681.07 5420012.37 325.65 26
497680.81 5420011.05 325.78 40
497681.07 5420012.02 325.69 27
497680.8 5420011.41 325.77 46
497681.09 5420011.33 325.74 22
497680.79 5420011.77 325.73 42
497681.1 5420010.98 325.76 20
497681.08 5420011.67 325.72 24
497695.04 5420007.18 329.8 1
497695.74 5420008.57 328.77 2
497694.78 5420007.31 329.85 2
497694.79 5420006.47 330.34 3
497695.76 5420007.17 329.69 3
497695.75 5420008.29 328.95 2
497695.04 5420006.9 330.01 1
497696.04 5420007.55 329.27 1
497695.02 5420008.38 329.09 1
497696.04 5420008.16 328.92 1
497694.79 5420007.02 329.99 2
497695.03 5420007.48 329.65 1
497696.03 5420008.45 328.72 2
497696.78 5420008.01 328.88 29
497694.79 5420006.74 330.16 2
497695.76 5420006.87 329.79 2
497695.75 5420007.72 329.31 4
497695.04 5420006.59 330.17 1
497696.77 5420008.28 328.68 11
497695.76 5420007.45 329.48 3
497695.75 5420008 329.13 2
497694.77 5420008.41 329.13 1
497696.04 5420007.85 329.09 1
497694.78 5420007.86 329.5 2
497694.78 5420007.58 329.67 1
497695.03 5420007.79 329.48 1
497695.02 5420008.09 329.28 1
497685.05 5420000.2 328.04 1
497684.03 5420001.17 328.34 1
497685.04 5420000.57 328.29 1
497684.05 5420000.42 327.92 1
497684.31 5420000.01 327.74 1
497684.07 5419999.69 327.48 2
497699.9 5419999.23 331.78 1
497699.9 5419999.59 331.99 1
497701.15 5419999.38 332.25 1
497699.91 5419998.87 331.59 1
497699.93 5419997.79 330.96 1
497699.94 5419997.42 330.76 1
497700.93 5419997.8 331.26 1
497700.9 5419999.24 332.07 1
497700.92 5419998.16 331.46 1
497700.91 5419998.88 331.87 1
497701.17 5419998.22 331.56 1
497699.92 5419998.15 331.16 1
497699.17 5419998.63 331.22 1
497700.93 5419997.43 331.03 1
497699.92 5419998.5 331.35 1
497700.91 5419998.53 331.71 1
497696.78 5420009.52 325.73 48
497695.75 5420009.45 325.7 48
497696.04 5420009.81 325.7 113
497696.04 5420009.46 325.69 31
497696.77 5420009.85 325.73 50
497696.76 5420010.19 325.75 53
497695.76 5420008.87 326 41
497696.05 5420008.77 325.73 29
497695.04 5420009.28 325.63 1
497696.78 5420009.19 325.7 35
497696.05 5420009.12 325.7 20
497695.03 5420009.64 325.69 23
497695.75 5420009.79 325.72 62
497695.04 5420008.9 325.54 2
497694.78 5420009.55 325.72 33
497696.76 5420010.55 325.89 53
497695.76 5420009.14 325.73 28
497696.79 5420008.85 325.68 27
497693.72 5420009.36 328.91 2
497693.71 5420009.95 328.59 1
497692.75 5420009.21 329.25 1
497694 5420009.49 328.67 1
497693.02 5420009.16 329.21 1
497693.72 5420009.09 329.08 2
497693.01 5420009.78 328.87 2
497692.75 5420009.51 329.12 6
497694 5420009.8 328.51 1
497693.01 5420010.09 328.7 3
497693.73 5420008.79 329.21 2
497693.02 5420009.47 329.06 1
497693.72 5420009.65 328.73 1
497692.76 5420008.65 329.61 1
497692.75 5420008.93 329.46 1
497697.77 5420007.89 328.58 2
497699.07 5420007.35 328.55 1
497697.05 5420007.91 328.82 12
497697.04 5420008.22 328.67 10
497698.04 5420007.4 329.18 12
497699.06 5420007.75 328.76 2
497698.04 5420007.63 328.7 10
497697.77 5420007.61 328.76 21
497698.79 5420007.42 328.51 1
497698.79 5420007.16 328.74 31
497699.07 5420007.05 328.72 10
497699.03 5420010.5 328.63 178
497698.74 5420010.74 328.71 195
497699.03 5420010.15 328.63 191
497698.76 5420009.75 328.68 190
497699.04 5420009.78 328.55 170
497698.75 5420010.08 328.72 211
497698.76 5420009.39 328.58 173
497698.74 5420010.41 328.73 198
497683.83 5420010.51 325.74 33
497684.1 5420010.84 325.67 33
497684.84 5420010.2 325.72 39
497685.13 5420009.2 325.77 29
497684.86 5420009.56 325.76 31
497683.84 5420010.18 325.75 37
497685.11 5420010.25 325.71 31
497683.85 5420009.85 325.78 32
497683.83 5420010.82 325.7 33
497684.14 5420008.77 325.83 23
497683.86 5420009.52 325.79 33
497684.11 5420010.49 325.71 30
497685.12 5420009.9 325.76 28
497684.12 5420009.81 325.78 30
497683.87 5420008.88 325.84 28
497684.86 5420009.24 325.79 35
497685.13 5420009.55 325.76 27
497684.84 5420010.54 325.7 35
497684.14 5420009.12 325.8 24
497684.11 5420010.15 325.74 32
497685.14 5420008.86 325.79 30
497684.13 5420009.46 325.78 27
497685.11 5420010.59 325.69 33
497683.86 5420009.21 325.83 30
497684.85 5420009.88 325.74 34
497684.87 5420008.91 325.79 30
497696.2 5419996.51 330.54 2
497695.21 5419995.69 330.42 2
497694.96 5419996.8 330.52 2
497694.97 5419996.17 330.47 2
497695.93 5419997.05 330.61 3
497695.2 5419996.02 330.45 2
497695.95 5419995.49 330.45 3
497695.19 5419997.02 330.52 2
497696.18 5419997.18 330.58 2
497696.21 5419995.53 330.47 2
497695.2 5419996.36 330.5 2
497695.18 5419997.36 330.62 1
497695.96 5419995.18 330.4 4
497694.98 5419995.87 330.45 3
497695.94 5419996.42 330.56 3
497695.94 5419996.12 330.54 5
497696.19 5419996.85 330.57 2
497696.2 5419996.19 330.5 3
497695.93 5419996.73 330.56 3
497694.97 5419996.48 330.49 3
497696.21 5419995.86 330.49 3
497695.95 5419995.8 330.49 3
497695.19 5419996.68 330.5 2
497696.22 5419995.2 330.43 3
497691.91 5420000.32 330.71 5
497692.14 5420000.6 330.74 2
497692.14 5420000.94 330.76 4
497691.92 5419999.69 330.67 5
497692.16 5419999.93 330.69 2
497691.89 5420001.25 330.67 1
497691.91 5420000 330.69 3
497692.13 5420001.29 330.83 2
497691.9 5420000.65 330.75 3
497692.15 5420000.27 330.71 2
497691.88 5420001.63 330.92 1
497690.9 5420001.72 330.69 1
497696.86 5420001.56 332.35 1
497694.87 5420001.46 331.81 1
497694.88 5420001.06 331.48 1
497695.85 5420001.09 331.9 2
497696.86 5420001.26 332.35 150
497695.84 5420001.46 332.12 25
497695.83 5420001.83 332.32 191
497695.85 5420000.75 331.79 169
497695.14 5419999.76 331.04 124
497696.11 5420001.2 332.16 146
497695.87 5419999.95 331.11 1
497688.91 5420004.65 327.44 1
497688.18 5420005.51 327.11 5
497687.93 5420005.09 327.42 1
497687.92 5420005.38 327.3 3
497688.9 5420005.2 327.08 24
497689.91 5420004.28 327.39 3
497687.94 5420004.26 327.93 1
497688.18 5420005.22 327.3 1
497687.93 5420004.81 327.59 1
497689.91 5420004.55 327.21 2
497687.92 5420005.64 327.08 11
497687.93 5420004.53 327.73 1
497688.91 5420004.37 327.59 1
497688.9 5420004.93 327.26 1
497681.86 5420009.99 325.8 23
497682.16 5420009.87 325.81 24
497681.88 5420009.02 325.87 24
497681.84 5420010.65 325.78 22
497683.11 5420010.04 325.77 18
497682.18 5420008.84 325.86 30
497681.12 5420009.93 325.82 16
497681.85 5420010.33 325.8 26
497682.85 5420010.32 325.75 24
497682.86 5420010 325.78 21
497682.14 5420010.56 325.77 25
497682.16 5420009.52 325.82 20
497682.17 5420009.17 325.84 26
497682.88 5420009.03 325.85 25
497683.14 5420008.66 325.85 17
497681.87 5420009.35 325.86 26
497681.13 5420009.25 325.89 22
497681.13 5420009.59 325.88 16
497682.87 5420009.68 325.81 26
497683.14 5420009 325.83 17
497681.14 5420008.9 325.9 31
497682.88 5420009.35 325.82 22
497683.12 5420009.7 325.79 17
497682.15 5420010.21 325.77 23
497681.87 5420009.66 325.83 27
497681.89 5420008.69 325.9 23
497683.11 5420010.39 325.74 16
497683.1 5420010.74 325.74 20
497683.13 5420009.35 325.81 20
497682.89 5420008.71 325.85 24
497682.85 5420010.65 325.72 31
497691.77 5420009.61 325.52 40
497691.76 5420010.3 325.62 42
497690.81 5420008.68 325.36 37
497692.02 5420010.6 325.62 16
497690.78 5420010.37 325.57 45
497692.04 5420009.53 325.53 16
497691.08 5420008.77 325.38 14
497691.77 5420009.96 325.57 37
497690.79 5420009.69 325.48 38
497691.78 5420009.27 325.5 46
497691.75 5420010.64 325.67 40
497691.07 5420009.12 325.43 23
497691.07 5420009.48 325.46 26
497692.05 5420008.8 325.44 17
497692.05 5420009.16 325.47 17
497691.79 5420008.94 325.48 41
497690.8 5420009.01 325.41 36
497692.03 5420009.88 325.57 22
497690.77 5420010.7 325.59 36
497690.78 5420010.02 325.5 38
497692.03 5420010.24 325.6 18
497691.06 5420009.85 325.5 22
497691.04 5420010.57 325.59 20
497690.8 5420009.35 325.43 40
497691.05 5420010.22 325.56 21
497684.14 5420007.66 328.41 159
497683.88 5420007.3 328.65 196
497684.15 5420006.75 328.92 149
497684.16 5420006.45 329.05 166
497684.89 5420006.72 328.75 2
497683.89 5420006.74 328.98 181
497683.87 5420007.59 328.5 182
497684.15 5420007.04 328.71 141
497684.89 5420007 328.57 175
497684.14 5420007.35 328.56 173
497684.88 5420007.28 328.43 158
497683.88 5420007 328.79 188
497683.89 5420006.44 329.1 193
497686.92 5420004.17 328.31 2
497687.16 5420005 327.68 1
497685.9 5420005.18 327.98 1
497685.91 5420004.9 328.14 1
497686.89 5420005.83 327.31 5
497685.89 5420006.01 327.49 2
497686.9 5420005 327.79 1
497685.89 5420005.74 327.67 2
497686.88 5420006.12 327.14 13
497685.9 5420005.45 327.84 1
497687.16 5420004.7 327.86 1
497686.9 5420005.28 327.63 1
497687.17 5420004.42 328.07 1
497686.91 5420004.72 327.96 1
497685.88 5420006.31 327.36 1
497686.91 5420004.45 328.14 2
497686.89 5420005.56 327.47 3
497692.17 5419999.25 330.58 2
497692.16 5419999.59 330.65 2
497691.23 5419997.59 330.43 2
497691.93 5419999.05 330.61 3
497690.98 5419997.65 330.43 11
497691.95 5419998.1 330.5 4
497691.96 5419997.79 330.5 5
497691.97 5419997.47 330.47 9
497692.2 5419997.57 330.44 2
497692.19 5419998.25 330.5 2
497690.97 5419998.28 330.49 4
497691.94 5419998.73 330.57 4
497690.96 5419998.59 330.54 3
497692.18 5419998.58 330.55 2
497691.21 5419998.58 330.47 2
497691.93 5419999.36 330.63 3
497691.22 5419997.92 330.46 3
497691.95 5419998.41 330.54 3
497691.22 5419998.25 330.5 2
497690.97 5419999.15 329.16 1
497692.19 5419997.91 330.46 2
497690.98 5419997.96 330.46 4
497691.2 5419998.9 330.5 1
497691.2 5419999.26 330.6 1
497692.18 5419998.92 330.57 2
497685.18 5420006.47 327.36 1
497685.17 5420006.79 327.23 1
497683.87 5420007.86 328.32 52
497683.9 5420006.16 329.29 167
497685.2 5420004.7 328.45 1
497684.16 5420006.14 329.19 138
497684.2 5420004.67 328.8 1
497685.21 5420004.12 328.85 2
497684.94 5420004.75 328.55 1
497684.2 5420004.38 328.98 1
497683.92 5420005.04 329.87 227
497684.17 5420005.25 329.74 19
497683.92 5420004.78 330.09 85
497684.95 5420004.19 328.88 2
497683.91 5420005.6 329.56 174
497685.2 5420004.42 328.7 2
497684.95 5420004.46 328.69 1
497684.17 5420005.84 329.38 174
497683.9 5420005.89 329.43 172
497683.91 5420005.32 329.76 198
497683.95 5420004.21 329.11 1
497684.17 5420005.54 329.53 194
497697.94 5419996.48 329.55 1
497696.96 5419995.85 330.54 6
497697.19 5419996.67 330.63 3
497698.95 5419996.43 329.88 1
497698.96 5419996.05 329.63 1
497697.2 5419996.34 330.58 3
497696.95 5419996.48 330.59 4
497696.95 5419996.8 330.64 3
497698.94 5419997.15 330.25 1
497696.97 5419995.55 330.52 4
497698.21 5419995.69 329.15 1
497696.96 5419996.16 330.54 7
497698.97 5419995.7 329.43 1
497698.95 5419996.79 330.08 1
497697.2 5419996.01 330.56 2
497697.19 5419997 330.64 2
497697.94 5419996.86 329.82 1
497696.94 5419997.1 330.63 3
497689.13 5420008.98 325.28 21
497690.06 5420009.42 325.38 24
497690.08 5420008.69 325.3 24
497689.14 5420008.64 325.27 23
497690.06 5420009.78 325.44 24
497688.12 5420009.22 325.26 29
497689.83 5420009.32 325.38 39
497688.83 5420008.98 325.3 34
497689.83 5420008.98 325.35 38
497688.84 5420008.65 325.25 36
497689.84 5420008.63 325.28 37
497687.87 5420008.76 325.21 49
497690.07 5420009.06 325.35 22
497689.82 5420009.66 325.44 38
497688.13 5420008.85 325.21 28
497690.05 5420010.14 325.48 27
497685.92 5420003.79 328.81 2
497685.93 5420003.51 328.96 1
497686.94 5420002.51 329.26 1
497686.94 5420002.79 329.12 1
497686.93 5420003.32 328.72 1
497686.95 5420001.98 329.65 1
497685.94 5420002.69 329.44 1
497685.94 5420002.98 329.31 1
497685.93 5420003.25 329.13 1
497685.95 5420002.44 329.65 2
497685.96 5420002.08 329.49 1
497685.92 5420004.08 328.68 2
497686.92 5420003.61 328.63 1
497686.95 5420002.25 329.45 1
497686.92 5420003.89 328.48 3
497686.23 5420002.37 329.6 1
497686.93 5420003.06 328.95 1
497686.21 5420003.52 328.85 1
497692.79 5420006.4 330.96 2
497692.79 5420006.68 330.78 1
497696.17 5419997.84 330.63 2
497695.92 5419997.67 330.65 3
497694.93 5419998.87 330.21 6
497696.18 5419997.53 330.65 2
497694.93 5419998.57 330.27 49
497695.9 5419998.87 330.54 1
497695.15 5419999.32 330.61 112
497695.92 5419997.37 330.63 4
497694.92 5419999.28 330.62 172
497682.9 5420006.92 329.13 157
497682.88 5420007.76 328.64 172
497681.12 5420008.54 328.71 103
497683.13 5420007.61 328.66 143
497681.89 5420007.22 329.22 158
497683.13 5420007.92 328.49 130
497682.88 5420008.05 328.49 155
497681.14 5420007.01 329.51 143
497681.87 5420008.08 328.74 188
497681.88 5420007.81 328.95 185
497682.18 5420006.63 329.48 164
497681.89 5420006.93 329.38 178
497682.89 5420007.2 328.94 182
497682.9 5420006.65 329.3 152
497683.15 5420006.39 329.3 175
497681.9 5420006.65 329.5 222
497682.17 5420007.53 328.97 174
497681.87 5420008.37 328.59 179
497681.9 5420006.37 329.69 188
497682.89 5420007.49 328.8 150
497682.17 5420007.82 328.8 166
497681.88 5420007.5 329.04 174
497682.16 5420008.44 328.49 166
497681.13 5420007.62 329.19 130
497682.18 5420006.92 329.31 163
497683.15 5420006.71 329.18 161
497682.18 5420007.22 329.12 178
497683.14 5420007.3 328.8 184
497681.12 5420008.24 328.87 116
497683.14 5420007.02 329.01 147
497681.14 5420007.32 329.35 141
497682.16 5420008.13 328.62 157
497681.15 5420006.41 329.86 146
497681.15 5420006.73 329.72 137
497681.13 5420007.92 329.02 127
497688.04 5419999.34 328.41 1
497690.01 5419998.94 328.75 1
497690.02 5419998.57 328.54 1
497689.02 5419998.92 328.41 1
497697.04 5420009.93 325.73 38
497697.04 5420010.29 325.74 40
497697.05 5420009.58 325.69 37
497697.03 5420010.68 325.89 38
497697.06 5420008.86 325.66 26
497697.05 5420009.22 325.7 34
497698.04 5420008.51 328.08 1
497698.78 5420008.27 327.97 33
497698.79 5420007.7 328.36 1
497698.79 5420007.99 328.17 2
497697.76 5420008.45 328.21 2
497697.76 5420008.16 328.36 2
497697.03 5420011.04 325.92 41
497682.19 5420008.49 325.9 27
497682.9 5420008.39 325.89 30
497683.16 5420007.97 325.89 23
497683.15 5420008.32 325.88 26
497682.91 5420008.06 325.9 33
497686.99 5420000.52 328.83 1
497687 5420000.14 328.56 1
497686.97 5420001.27 329.3 1
497685.98 5420001.33 329.01 1
497685.97 5420001.71 329.26 1
497687.2 5420001.8 329.7 2
497685.99 5420000.96 328.77 1
497686.98 5420000.89 329.06 1
497686.96 5420001.63 329.48 1
497692.92 5419999.4 330.69 2
497693.17 5419999.39 330.67 2
497693.89 5419999.33 330.72 2
497692.93 5419999.09 330.66 2
497694.05 5420005.04 331.36 1
497694.06 5420004.46 331.73 1
497694.04 5420006.22 330.68 2
497692.8 5420005.3 331.65 1
497693.78 5420004.87 331.54 1
497693.78 5420005.15 331.37 1
497692.82 5420004.2 332.3 1
497693.77 5420005.7 331.06 2
497693.78 5420004.6 331.72 1
497692.82 5420004.47 332.13 1
497693.77 5420005.99 330.93 3
497693.76 5420006.26 330.74 1
497692.81 5420004.74 331.93 1
497692.79 5420006.13 331.16 2
497694.04 5420005.62 331 1
497694.05 5420005.34 331.21 1
497693.79 5420004.33 331.89 1
497694.04 5420005.93 330.88 2
497692.81 5420005.02 331.78 1
497692.8 5420005.84 331.26 2
497694.06 5420004.18 331.92 1
497692.8 5420005.56 331.42 1
497693.77 5420005.43 331.24 1
497697.76 5420008.72 327.99 20
497698.01 5420010.61 328.11 123
497697.04 5420008.79 328.19 1
497698.01 5420010.3 328.27 146
497698.02 5420009.96 328.29 134
497699.04 5420009.4 328.4 151
497698.02 5420009.61 328.3 157
497699.05 5420008.88 327.72 69
497698.77 5420008.91 327.96 104
497697.74 5420010.04 328.04 131
497697.75 5420009.38 328.05 150
497697.75 5420009.62 327.67 119
497697.73 5420010.64 327.82 149
497697.04 5420009.09 328.01 5
497697.73 5420010.38 328.05 193
497698.03 5420009.25 328.25 123
497691.77 5420007.3 330.72 1
497691.78 5420007.02 330.87 1
497691.78 5420006.73 331.01 1
497691.79 5420006.45 331.17 1
497687.01 5419999.77 328.35 1
497698.87 5420000.45 332.24 1
497697.84 5420001.83 332.23 1
497697.87 5420000.15 331.77 1
497698.12 5420000.44 332.27 8
497696.87 5420000.83 331.91 1
497697.85 5420000.89 332.21 1
497698.87 5420000.83 332.51 1
497697.88 5419999.77 331.53 1
497697.84 5420001.55 332.4 1
497698.86 5420001.65 332.06 1
497697.11 5420001.36 332.27 1
497697.1 5420001.76 332.55 2
497697.12 5420000.97 332.05 1
497697.86 5420000.52 331.98 1
497698.86 5420001.37 332.2 1
497698.86 5420001.09 332.34 1
497699.08 5420008.09 325.93 75
497699.09 5420007.71 325.8 70
497698.06 5420008.28 325.68 26
497698.8 5420008.03 325.72 30
497697.78 5420008.49 325.7 32
497683.21 5420003.45 329.72 74
497681.24 5420003.12 328.95 81
497681.23 5420003.51 329.13 89
497682.3 5420002.01 328.63 122
497681.26 5420002.34 328.55 79
497681.99 5420003.02 329.11 119
497682.02 5420002.27 328.66 135
497682.29 5420002.4 328.82 123
497683.01 5420002.38 328.82 1
497682.27 5420003.17 329.23 117
497682.01 5420002.63 328.88 125
497681.22 5420003.9 329.35 107
497682.03 5420001.9 328.5 133
497682.98 5420003.19 329.49 135
497682.28 5420002.79 329.01 121
497681.25 5420002.73 328.74 73
497681.97 5420003.77 329.53 130
497682.25 5420003.57 329.46 123
497682.97 5420003.55 329.71 125
497683.02 5420002 328.55 1
497683 5420002.82 329.3 18
497682.24 5420003.97 329.69 133
497683.25 5420002.18 328.7 1
497681.98 5420003.39 329.33 140
497688.22 5420002.57 328.87 1
497687.97 5420002.34 329.1 1
497688.21 5420002.86 328.69 1
497689.93 5420001.88 330.45 1
497688.94 5420002.17 328.88 1
497688.93 5420002.72 328.56 1
497688.95 5420001.9 329.08 1
497688.22 5420001.99 329.24 1
497688.94 5420002.44 328.74 1
497688.21 5420003.14 328.5 1
497687.96 5420002.61 328.93 1
497689.93 5420002.98 328.58 11
497687.95 5420003.43 328.43 1
497687.96 5420002.88 328.72 1
497687.96 5420003.15 328.57 1
497687.97 5420002.06 329.25 1
497689.92 5420003.29 328.5 143
497691.77 5420007.59 330.57 3
497682.15 5420008.72 328.25 30
497681.86 5420008.93 328.19 1
497690.28 5419996.45 327.73 3
497690.27 5419996.78 327.7 62
497692.02 5419996.12 327.71 85
497691.27 5419996.53 327.72 58
497692.02 5419995.8 327.71 72
497692.25 5419995.88 327.77 1
497691.04 5419996.31 327.72 94
497691.28 5419996.2 327.7 59
497692.25 5419996.19 327.71 2
497691.04 5419996.01 327.75 3
497691.28 5419995.89 327.71 1
497691.03 5419996.62 327.72 90
497692.03 5419995.51 327.73 6
497690.14 5420005.49 324.99 17
497690.16 5420004.44 324.94 20
497690.15 5420005.13 324.96 24
497690.88 5420005.74 324.03 21
497690.15 5420004.79 324.98 24
497690.89 5420005.43 324.11 24
497690.86 5420006.34 325.11 42
497690.13 5420006.18 325.03 17
497690.13 5420005.83 325 24
497691.13 5420005.94 325.21 16
497690.88 5420005.38 325.2 48
497691.13 5420006.26 325.08 26
497680.86 5420008.93 325.9 93
497680.85 5420009.29 325.88 36
497680.82 5420010.71 325.81 26
497681.11 5420010.28 325.81 14
497680.08 5420010.42 325.83 34
497680.09 5420010.07 325.87 31
497680.1 5420009.73 325.88 30
497681.1 5420010.63 325.78 15
497680.84 5420009.64 325.85 28
497679.05 5420009.75 325.7 59
497680.11 5420009.37 325.89 51
497679.74 5420010.58 325.46 50
497680.82 5420010.35 325.83 27
497680.83 5420009.99 325.87 27
497679.76 5420009.62 325.9 36
497686.91 5420005.89 324.91 87
497687.17 5420006.03 324.96 18
497685.91 5420006.35 324.93 95
497686.9 5420006.22 324.98 45
497686.2 5420006.28 324.89 65
497687.17 5420005.68 324.95 18
497679.21 5420002.09 327.8 87
497679.93 5420002.12 328.04 126
497680.25 5420002.33 328.21 113
497679.92 5420002.52 328.23 132
497679.19 5420002.49 328.03 104
497681 5420002.18 328.37 114
497678.87 5420001.99 327.7 115
497679.18 5420002.9 328.25 121
497680.26 5420001.93 327.99 101
497689.2 5420004.06 327.69 1
497689.21 5420003.17 328.18 1
497689.92 5420003.72 327.73 2
497687.94 5420003.98 328.1 1
497687.95 5420003.71 328.26 1
497688.93 5420002.99 328.4 1
497689.21 5420003.75 327.84 1
497688.91 5420004.09 327.74 2
497688.92 5420003.54 328.1 2
497689.21 5420003.47 328.01 1
497689.92 5420003.99 327.51 2
497688.92 5420003.81 327.9 2
497688.93 5420003.27 328.27 2
497689.92 5420003.51 328.15 26
497699.12 5420001.19 332.18 1
497701.13 5420001.48 331.47 2
497701.14 5419999.77 332.52 1
497699.14 5420000.19 332.15 1
497699.89 5419999.98 332.28 1
497700.88 5420001.03 331.83 2
497700.88 5420000.49 332.12 1
497699.87 5420001.16 332.07 5
497700.13 5420001.42 331.76 1
497700.89 5419999.62 332.31 1
497700.87 5420001.84 331.35 2
497700.88 5420000.22 332.29 1
497699.87 5420001.43 331.9 2
497700.89 5419999.98 332.54 2
497701.14 5420000.61 331.97 2
497699.88 5420000.62 332.39 1
497700.87 5420001.3 331.66 2
497699.87 5420001.69 331.72 1
497699.13 5420000.91 332.4 1
497700.14 5420000.31 332.54 2
497699.12 5420001.77 331.88 1
497699.87 5420000.88 332.19 1
497701.13 5420001.19 331.64 1
497700.87 5420001.57 331.5 2
497700.88 5420000.76 331.98 1
497701.13 5420001.76 331.29 2
497701.13 5420000.91 331.83 1
497701.14 5420000.33 332.11 1
497700.13 5420001.71 331.57 1
497688.31 5419998.31 327.86 2
497688.05 5419998.98 328.22 1
497690.03 5419998.21 328.31 1
497689.03 5419998.56 328.2 1
497690.04 5419997.46 327.88 1
497683.82 5420011.16 325.71 39
497679.02 5420009.42 328.79 143
497681.11 5420008.85 328.55 112
497679.02 5420009.1 328.97 154
497679.74 5420009.24 328.7 170
497680.08 5420009.32 328.56 157
497679.01 5420009.72 328.59 178
497679.74 5420009.55 328.52 160
497680.83 5420008.88 328.6 175
497679.75 5420008.92 328.82 203
497679.03 5420008.8 329.22 53
497680.08 5420009.01 328.71 151
497680.09 5420008.7 328.89 147
497679.01 5420010.05 328.45 156
497685.2 5420005 328.29 1
497685.18 5420005.89 327.75 1
497684.94 5420005.01 328.35 2
497685.18 5420006.2 327.61 2
497684.93 5420005.58 328.03 3
497685.19 5420005.29 328.11 1
497684.92 5420005.86 327.9 3
497685.19 5420005.59 327.95 1
497684.93 5420005.29 328.18 1
497684.92 5420006.13 327.7 1
497681.86 5420008.66 328.44 164
497685.91 5420004.35 328.52 2
497689.9 5420003.02 331.19 1
497689.91 5420002.66 330.99 1
497689.92 5420002.28 330.77 1
497684.32 5419999.6 327.46 2
497685.33 5419999.07 327.42 1
497683.18 5420004.39 330.78 40
497682.95 5420004.17 330.86 36
497690.85 5420005.31 328.72 113
497691.1 5420005.57 329.17 0
497690.85 5420005.12 329.21 106
497691.09 5420005.87 329.04 66
497692.77 5420009.25 326.73 111
497694 5420010.8 326.85 61
497690.14 5420003.65 328.57 112
497685.88 5420006.58 327.19 4
497686.17 5420006.5 327.14 3
497690.87 5420005.38 326.44 105
497690.87 5420005.09 326.58 201
497691.12 5420005.92 326.46 73
497691.1 5420005.94 327.96 3
497690.14 5420004.34 327.24 1
497690.14 5420004.63 327.06 9
497680.06 5420010.96 326.61 81
497679.67 5420012.96 326.38 1
497680.76 5420012.68 326.53 90
497680.77 5420012.33 326.58 70
497680.05 5420011.3 326.51 61
497680.07 5420009.62 328.38 148
497679.73 5420009.86 328.33 98
497679.75 5420010.09 326.33 49
497681.11 5420009.15 328.38 122
497680.82 5420009.19 328.39 213
497679.73 5420010.48 326.54 99
497682.87 5420008.34 328.34 57
497683.12 5420008.23 328.32 63
497693.95 5419996.64 328.74 115
497693.95 5419996.96 328.76 1
497693.94 5419997.36 329.08 129
497694.2 5419997.17 329.1 137
497692.97 5419997.18 330.44 1
497692.05 5420007.72 328.1 11
497691.8 5420007.3 328.1 117
497692.06 5420007.82 327.1 78
497691.81 5420007.32 326.89 118
497687.03 5419999.03 327.89 1
497686.05 5419998.74 327.48 2
497687.05 5419998.29 327.47 3
497686.04 5419999.11 327.66 1
497690.95 5419999.88 329.59 1
497691.9 5420000.91 330.58 1
497690.92 5420000.98 330.22 1
497690.93 5420000.62 330.04 1
497690.14 5420003.87 328.06 101
497690.14 5420004.05 327.43 2
497698.93 5419997.51 330.47 1
497697.18 5419997.34 330.67 2
497698 5420010.96 328.06 163
497697.73 5420010.91 327.54 2
497690.07 5419996.51 327.77 12
497693.99 5420011.17 326.93 81
497693.98 5420011.53 326.97 100
497683.19 5420004.09 330.88 16
497690.06 5419996.41 328.55 2
497690.05 5419997 328.48 2
497693.24 5419996.48 328.34 102
497694.24 5419995.21 327.82 7
497693 5419996.28 328.23 5
497693.97 5419995.93 328.34 185
497694.23 5419995.56 327.91 1
497681.28 5420001.94 328.31 97
497693.81 5420002.76 333.09 1
497683.27 5420001.78 328.48 1
497682.31 5420001.64 328.45 92
497699.99 5419994.88 329.22 1
497701.82 5420008.44 327.3 2
497701.85 5420006.41 328.32 1
497701.84 5420006.7 328.17 2
497700.08 5420006.44 328.98 24
497700.08 5420006.71 328.68 3
497700.07 5420007.43 328.85 5
497699.79 5420007.68 329.08 114
497699.79 5420007.98 328.95 147
497699.78 5420008.54 328.62 147
497700.06 5420008.4 328.58 102
497699.81 5420006.63 328.75 18
497699.8 5420007.31 328.85 7
497699.81 5420006.91 328.57 2
497702.82 5420002.93 330.12 2
497702.81 5420004.02 329.48 1
497703.05 5420002.94 330.03 2
497702.83 5420002.12 330.59 1
497701.87 5420003.92 329.82 1
497703.06 5420002.66 330.22 1
497703.05 5420003.81 329.52 1
497703.05 5420004.1 329.31 1
497702.14 5420003.85 329.76 2
497702.83 5420002.39 330.47 1
497701.89 5420002.55 330.58 1
497702.15 5420002.95 330.25 1
497702.82 5420003.47 329.79 2
497703.06 5420002.08 330.57 1
497702.81 5420003.74 329.59 2
497702.82 5420002.65 330.27 1
497702.15 5420002.38 330.62 1
497702.82 5420003.2 329.97 3
497703.05 5420003.52 329.68 1
497703.06 5420002.35 330.35 1
497700.09 5420004.64 331.28 7
497699.81 5420005.34 331.23 12
497699.82 5420004.71 331.28 13
497700.81 5420005.57 331.16 10
497699.82 5420005.03 331.26 11
497700.8 5420006.19 331.09 13
497700.08 5420005.62 331.17 6
497699.8 5420006.26 331.11 11
497699.8 5420005.96 331.18 11
497700.81 5420005.89 331.13 17
497700.07 5420005.95 331.12 6
497700.09 5420004.97 331.26 5
497700.08 5420005.29 331.21 4
497699.81 5420005.65 331.22 18
497699.83 5420004.41 331.32 13
497701.07 5420006.08 331.12 9
497700.07 5420006.29 331.12 5
497700.09 5420004.31 331.33 4
497701.91 5420000.13 332.07 2
497701.91 5419999.87 332.21 1
497701.91 5420000.66 331.7 1
497701.9 5420001.74 331.1 1
497701.91 5420000.4 331.91 1
497701.9 5420001.47 331.23 1
497702.17 5420000.11 332.03 1
497702.84 5420001.3 331.1 1
497703.06 5420001.8 330.74 1
497702.16 5420001.52 331.13 1
497702.17 5420000.38 331.84 1
497702.16 5420001.24 331.35 1
497702.84 5420000.76 331.41 1
497702.16 5420000.96 331.5 1
497702.84 5420001.58 330.94 3
497702.85 5420000.5 331.58 1
497702.83 5420001.85 330.8 2
497702.84 5420001.04 331.25 1
497703.07 5420001.21 331.09 2
497701.9 5420000.92 331.55 1
497702.16 5420000.67 331.67 1
497702.17 5419999.81 332.16 1
497702.15 5420001.8 330.93 1
497703.07 5420001.5 330.91 1
497701.9 5420001.2 331.41 1
497700.79 5420008.79 327.26 129
497701.06 5420009.6 327.18 120
497700.05 5420009.67 328.08 136
497700.06 5420008.91 327.8 106
497699.78 5420009.01 327.86 165
497700.79 5420008.68 328.17 131
497699.77 5420009.4 328.14 154
497701.06 5420008.7 327.81 98
497700.04 5420010 328 158
497699.77 5420009.77 328.3 177
497700.06 5420008.71 328.39 111
497701.06 5420009.26 327.24 115
497699.76 5420010.11 328.37 190
497701.07 5420008.88 327.16 116
497700.06 5420009.27 327.9 54
497700.79 5420009.1 327.25 182
497700.78 5420009.46 327.36 156
497702.14 5420004.13 329.54 1
497702.13 5420005.02 329.06 1
497702.8 5420004.84 328.94 1
497701.85 5420006.13 328.43 2
497703.03 5420005.59 328.44 2
497703.04 5420004.41 329.16 2
497702.81 5420004.56 329.09 1
497701.87 5420004.47 329.46 1
497702.8 5420005.12 328.8 1
497701.85 5420005.85 328.64 1
497703.04 5420004.69 328.96 1
497701.86 5420005.29 328.93 1
497703.04 5420004.99 328.78 1
497702.81 5420004.29 329.29 1
497702.79 5420005.68 328.43 3
497702.8 5420005.4 328.62 1
497701.85 5420005.57 328.78 1
497701.87 5420004.18 329.59 1
497700.85 5420003.74 330.2 2
497701.12 5420002.91 330.59 1
497701.11 5420004.09 329.92 2
497700.84 5420004.01 330.03 2
497700.85 5420003.2 330.53 1
497700.85 5420003.46 330.38 2
497700.07 5420006.63 331.11 5
497700.8 5420006.47 330.95 1
497699.8 5420006.58 331.13 8
497699.79 5420006.88 331.02 9
497699.78 5420008.89 328.71 99
497703.83 5420003.43 329.53 1
497704.09 5420003.46 329.45 1
497704.09 5420003.17 329.6 1
497703.83 5420003.7 329.35 1
497703.82 5420003.98 329.19 1
497703.83 5420002.89 329.87 2
497703.83 5420003.15 329.7 1
497701.85 5420007.39 325.75 101
497701.85 5420007.07 325.75 100
497702.8 5420006.6 325.7 119
497701.84 5420007.73 325.78 117
497702.79 5420006.94 325.74 127
497702.11 5420007.99 325.81 182
497702.13 5420006.94 325.75 81
497701.86 5420006.43 325.78 106
497701.86 5420006.74 325.74 99
497702.13 5420006.58 325.72 97
497702.12 5420007.29 325.73 96
497702.12 5420007.63 325.76 98
497700.1 5420004 331.38 3
497699.84 5420003.8 331.42 11
497699.85 5420002.77 331.07 1
497700.86 5420002.63 330.82 1
497701.12 5420002.34 330.94 1
497699.86 5420002.5 331.22 1
497701.12 5420002.64 330.79 1
497701.13 5420002.05 331.11 1
497699.83 5420004.1 331.36 12
497700.86 5420002.38 331 1
497700.12 5420002.28 331.24 1
497700.12 5420002.87 330.92 1
497700.86 5420002.92 330.69 3
497699.85 5420003.15 331.31 1
497700.86 5420002.1 331.16 1
497700.11 5420003.16 330.74 1
497699.86 5420002.22 331.35 1
497699.84 5420003.5 331.46 10
497699.86 5420001.95 331.54 1
497700.12 5420002.01 331.45 1
497701.82 5420008.76 327.32 132
497700.84 5420004.55 329.68 2
497701.1 5420005.26 329.2 0
497701.11 5420004.38 329.74 2
497701.1 5420004.97 329.38 2
497701.09 5420005.9 329.03 9
497700.82 5420006.23 328.71 25
497701.1 5420004.66 329.54 1
497701.09 5420006.16 328.7 5
497700.84 5420004.29 329.86 2
497700.8 5420007.73 328.24 149
497700.07 5420007.62 328.22 43
497701.07 5420007.76 328.22 76
497700.07 5420007.96 328.18 126
497701.07 5420008.33 327.69 107
497701.08 5420007.46 328.39 8
497700.81 5420007.33 327.96 3
497700.8 5420008.02 328.09 160
497701.07 5420008.07 328.06 81
497700.79 5420008.33 328.07 182
497699.79 5420008.13 328.24 175
497702.17 5419999.53 332.37 1
497701.92 5419999.61 332.39 1
497701.89 5420002 330.91 1
497701.89 5420002.28 330.76 1
497702.81 5420005.38 325.99 122
497702.81 5420005.96 325.71 129
497703.05 5420005.59 325.72 66
497702.13 5420006.34 326.1 149
497703.05 5420005.27 325.85 6
497702.81 5420005.74 326.14 142
497703.05 5420005.93 325.7 117
497702.8 5420006.29 325.71 132
497703.04 5420006.29 325.72 101
497702.13 5420006.1 326.56 171
497702.13 5420005.81 326.76 120
497700.94 5419997.06 330.78 1
497703.82 5420004.26 329.07 2
497704.78 5420004.59 328.55 1
497669.43 5420003.66 326.1 105
497670.55 5420003.11 326.11 59
497671.31 5420002.91 326.15 148
497670.22 5420003.17 326.03 37
497671.33 5420002.52 325.96 1
497671.68 5420002.65 326.14 96
497674.91 5420002.04 326.66 77
497675.58 5420003.71 327.72 143
497674.53 5420003.79 327.54 130
497674.59 5420002.16 326.6 133
497674.55 5420003.38 327.31 112
497675.63 5420002.14 326.89 136
497675.97 5420002.35 327.12 91
497674.56 5420002.98 327.05 121
497674.84 5420004.03 327.7 104
497675.57 5420004.11 327.95 119
497675.62 5420002.54 327.11 119
497674.58 5420002.57 326.83 136
497675.59 5420003.32 327.53 117
497674.88 5420002.84 327.06 83
497675.96 5420002.75 327.35 101
497675.92 5420003.94 327.95 103
497675.61 5420002.94 327.34 113
497675.99 5420001.95 326.87 97
497674.9 5420002.44 326.85 80
497675.95 5420003.15 327.54 100
497675.94 5420003.54 327.73 109
497674.86 5420003.63 327.49 88
497674.87 5420003.23 327.26 82
497674.38 5420008.27 329.98 153
497674.74 5420007.25 329.48 98
497674.73 5420007.65 329.69 92
497674.77 5420006.45 329.06 87
497675.48 5420006.51 329.3 129
497675.43 5420008.09 330.13 162
497676.52 5420007.9 330.33 176
497675.46 5420007.3 329.7 160
497675.83 5420006.74 329.51 120
497675.78 5420008.33 330.31 93
497676.51 5420008.52 329.98 162
497674.71 5420008.06 329.91 107
497674.75 5420006.85 329.27 82
497676.54 5420007.5 330.11 145
497675.42 5420008.48 330.32 176
497675.44 5420007.69 329.92 159
497675.82 5420007.14 329.7 127
497674.42 5420007.05 329.29 133
497676.52 5420008.21 330.14 185
497674.7 5420008.45 330.14 101
497676.55 5420007.09 329.88 140
497676.56 5420006.68 329.65 125
497674.43 5420006.63 329.07 120
497675.47 5420006.9 329.5 130
497674.39 5420007.86 329.75 137
497674.4 5420007.44 329.52 145
497675.81 5420007.55 329.93 130
497675.79 5420007.94 330.16 134
497675.52 5420005.31 328.63 145
497674.45 5420006.22 328.83 135
497675.54 5420004.91 328.43 132
497675.85 5420006.36 329.33 114
497674.78 5420006.04 328.82 97
497675.51 5420005.71 328.85 151
497676.6 5420005.47 328.99 125
497674.46 5420005.82 328.62 126
497675.87 5420005.55 328.87 117
497675.86 5420005.95 329.11 111
497675.9 5420004.75 328.42 118
497674.8 5420005.25 328.42 86
497675.88 5420005.15 328.64 134
497676.59 5420005.88 329.21 122
497674.79 5420005.64 328.63 98
497676.58 5420006.28 329.42 108
497675.5 5420006.11 329.09 130
497674.48 5420005.42 328.42 110
497673.22 5420011.46 329.17 189
497672.15 5420011.04 329.72 176
497673.22 5420011.78 329.03 167
497672.12 5420012.27 329.02 152
497674.3 5420011.24 329.03 169
497673.58 5420011.27 329.21 154
497673.2 5420012.7 328.54 160
497674.3 5420011.55 328.84 189
497672.14 5420011.34 329.53 171
497674.29 5420011.87 328.66 179
497672.51 5420011.15 329.53 151
497674.28 5420012.18 328.5 148
497673.57 5420011.91 328.84 144
497672.49 5420012.08 329.02 120
497673.21 5420012.07 328.83 156
497672.48 5420012.71 328.72 131
497673.57 5420011.6 329.04 155
497673.59 5420010.95 329.38 174
497674.31 5420010.93 329.21 160
497673.23 5420011.15 329.33 215
497673.56 5420012.24 328.66 137
497672.47 5420013.02 328.5 133
497673.2 5420012.38 328.69 143
497672.5 5420011.46 329.39 135
497672.13 5420011.96 329.21 157
497673.56 5420012.57 328.51 150
497672.13 5420011.65 329.38 159
497672.49 5420012.39 328.87 127
497672.5 5420011.78 329.22 142
497677.07 5420001.93 327.15 101
497678.13 5420001.92 327.44 104
497677.75 5420003.72 328.37 134
497678.85 5420002.37 327.88 152
497677.05 5420002.32 327.38 107
497678.83 5420003.16 328.3 152
497676.66 5420003.86 328.13 131
497676.71 5420002.23 327.2 120
497678.09 5420003.14 328.08 124
497676.69 5420003.04 327.66 121
497677.77 5420003.31 328.1 146
497676.7 5420002.64 327.43 120
497677.79 5420002.54 327.69 130
497677.04 5420002.72 327.59 110
497678.12 5420002.33 327.68 98
497678.84 5420002.77 328.1 165
497677.81 5420002.14 327.47 129
497678.1 5420002.74 327.89 111
497677 5420003.92 328.26 93
497678.08 5420003.56 328.33 113
497677.78 5420002.92 327.9 152
497677.01 5420003.53 328.06 106
497676.67 5420003.45 327.9 144
497677.03 5420003.13 327.84 93
497678.69 5420007.66 329.85 211
497678.68 5420008.28 329.51 183
