1519
497716.36 5420063.69 338.8 58
497715.8 5420063.48 338.81 55
497715.44 5420063.66 338.81 66
497714.5 5420062.91 338.8 65
497714.88 5420060.73 338.81 63
497714.52 5420061.03 338.81 60
497716.4 5420059.37 338.8 62
497715.48 5420059.8 338.79 64
497715.82 5420059.91 338.79 54
497715.81 5420061.1 338.78 59
497714.52 5420060.66 338.78 66
497715.82 5420060.7 338.78 46
497714.53 5420060.29 338.8 65
497715.48 5420059.43 338.79 58
497714.89 5420059.94 338.79 57
497715.47 5420060.2 338.81 68
497714.52 5420061.41 338.81 63
497715.82 5420060.3 338.78 54
497714.53 5420059.91 338.8 58
497715.83 5420059.52 338.79 54
497714.54 5420059.54 338.81 55
497716.39 5420060.54 338.79 59
497715.47 5420060.58 338.8 75
497715.47 5420060.96 338.8 60
497716.39 5420061.34 338.81 64
497716.39 5420060.94 338.8 62
497714.89 5420060.33 338.79 47
497714.88 5420061.52 338.81 64
497715.81 5420061.49 338.81 55
497716.4 5420059.77 338.81 65
497714.89 5420059.54 338.79 60
497716.4 5420060.16 338.79 65
497714.88 5420061.13 338.82 64
497715.46 5420061.35 338.79 73
497706.93 5420057.67 339.65 54
497705.35 5420058.76 339.66 37
497705.97 5420058.84 339.66 75
497706.32 5420058.22 339.65 48
497705.98 5420057.74 339.66 70
497707.3 5420058.65 339.64 49
497707.31 5420057.47 339.64 55
497707.31 5420057.08 339.65 51
497706.93 5420058.03 339.67 59
497706.92 5420058.4 339.65 65
497705.96 5420059.2 339.65 83
497705.35 5420059.16 339.64 54
497706.91 5420059.13 339.66 65
497707.29 5420059.04 339.65 54
497707.3 5420058.27 339.66 64
497705.97 5420058.09 339.63 65
497706.31 5420059 339.64 55
497705.36 5420057.99 339.67 57
497705.36 5420058.38 339.65 48
497706.92 5420058.78 339.66 64
497705.37 5420057.2 339.64 61
497705.97 5420058.46 339.65 78
497706.93 5420057.3 339.63 70
497705.36 5420057.59 339.65 63
497706.32 5420057.82 339.66 51
497706.33 5420057.42 339.65 50
497706.31 5420058.6 339.64 62
497707.31 5420057.87 339.65 47
497705.98 5420057.37 339.69 79
497714.54 5420059.17 338.79 59
497714.9 5420058.36 338.79 57
497714.55 5420057.68 338.8 62
497715.84 5420057.54 338.79 52
497714.89 5420059.14 338.78 54
497716.42 5420057.43 338.8 60
497714.54 5420058.8 338.82 65
497716.41 5420058.59 338.8 64
497714.55 5420058.42 338.8 74
497716.42 5420057.82 338.8 55
497716.41 5420058.2 338.8 52
497714.9 5420057.97 338.8 61
497715.84 5420057.94 338.79 36
497715.83 5420059.12 338.8 55
497716.41 5420058.99 338.81 60
497715.49 5420058.29 338.82 64
497715.84 5420058.34 338.79 49
497715.5 5420057.51 338.79 61
497714.55 5420058.05 338.82 69
497715.5 5420057.12 338.78 54
497715.85 5420057.15 338.79 59
497714.91 5420057.58 338.8 60
497715.49 5420058.65 338.8 70
497714.91 5420057.18 338.78 54
497715.49 5420057.9 338.79 68
497714.56 5420057.3 338.79 64
497715.83 5420058.73 338.79 60
497714.9 5420058.76 338.79 58
497715.48 5420059.04 338.8 64
497711.7 5420059.48 339.74 22
497710.81 5420059.32 339.68 62
497711.69 5420060.45 338.82 66
497710.79 5420060.43 339.7 79
497709.8 5420060.86 339.69 78
497711.13 5420060.72 339.7 1
497711.69 5420061.2 338.79 76
497711.13 5420060.99 338.79 45
497710.79 5420061.41 338.79 86
497709.81 5420060.5 339.68 70
497709.8 5420061.48 338.81 119
497710.79 5420060.81 339.77 35
497709.8 5420061.25 339.74 38
497710.16 5420059.63 339.67 49
497711.13 5420059.93 339.66 46
497711.7 5420059.85 339.74 24
497711.69 5420060.82 338.82 80
497710.14 5420061.48 338.78 70
497710.14 5420061.23 339.72 4
497710.8 5420060.05 339.67 68
497709.82 5420059.38 339.68 76
497710.15 5420060.43 339.67 42
497710.79 5420061.04 338.79 85
497711.13 5420060.32 339.7 46
497709.81 5420059.75 339.68 69
497709.81 5420060.12 339.66 77
497711.14 5420059.53 339.66 45
497711.69 5420060.22 339.75 33
497710.16 5420060.03 339.66 41
497710.15 5420060.82 339.7 57
497711.12 5420061.38 338.78 52
497710.8 5420059.69 339.67 59
497713.52 5420063.59 338.82 80
497713.52 5420063.23 338.8 68
497713.91 5420061.82 338.8 51
497713.91 5420062.61 338.8 55
497712.61 5420062.34 338.79 73
497713.53 5420062.85 338.82 74
497713.53 5420062.48 338.8 69
497712.04 5420062.45 338.79 42
497712.62 5420061.97 338.82 59
497712.04 5420062.85 338.79 41
497712.96 5420062.6 338.79 39
497712.03 5420063.24 338.77 46
497712.05 5420061.66 338.8 50
497713.53 5420062.1 338.81 71
497713.91 5420062.22 338.8 54
497712.03 5420063.65 338.8 49
497712.97 5420062.2 338.8 41
497712.62 5420061.6 338.77 68
497712.61 5420062.72 338.81 62
497712.6 5420063.46 338.81 59
497712.05 5420062.04 338.78 54
497712.95 5420063.79 338.78 40
497713.54 5420061.74 338.84 73
497712.61 5420063.08 338.81 67
497712.97 5420061.81 338.82 42
497713.9 5420063.01 338.8 55
497713.9 5420063.41 338.8 49
497712.96 5420063.4 338.81 36
497712.96 5420062.99 338.8 39
497720.31 5420062.84 338.8 52
497719.76 5420062.55 338.81 55
497719.36 5420061.88 338.8 49
497720.76 5420062.86 338.81 63
497719.76 5420062.95 338.8 47
497719.35 5420062.67 338.79 48
497719.36 5420062.28 338.8 51
497718.76 5420063.72 338.79 50
497718.77 5420061.77 338.78 46
497720.31 5420063.62 338.79 48
497720.77 5420062.06 338.82 53
497719.76 5420061.76 338.78 46
497720.76 5420062.46 338.8 62
497719.75 5420063.74 338.8 57
497718.77 5420062.95 338.8 55
497720.76 5420063.65 338.79 55
497720.32 5420062.05 338.8 58
497720.77 5420061.65 338.8 55
497720.32 5420062.44 338.8 46
497718.76 5420063.34 338.8 59
497720.32 5420061.67 338.8 48
497719.35 5420063.05 338.82 47
497720.76 5420063.25 338.81 62
497718.77 5420062.17 338.81 47
497719.75 5420063.34 338.78 66
497719.76 5420062.15 338.8 58
497719.35 5420063.45 338.82 45
497718.77 5420062.55 338.83 49
497720.31 5420063.22 338.79 51
497710.73 5420066.63 338.8 79
497711.61 5420067.92 338.81 65
497710.72 5420067.76 338.82 73
497710.09 5420067.07 338.82 48
497710.73 5420066.25 338.79 80
497711.07 5420066.95 338.79 50
497710.71 5420068.14 338.81 72
497710.08 5420068.27 338.81 48
497712 5420067.63 338.81 53
497710.1 5420066.66 338.81 52
497711.63 5420066.06 338.83 57
497710.72 5420067.01 338.8 85
497711.06 5420067.76 338.81 46
497711.07 5420067.35 338.78 34
497711.07 5420066.56 338.8 43
497711.99 5420068.03 338.79 53
497710.08 5420067.86 338.81 50
497712 5420067.23 338.8 57
497711.06 5420068.15 338.82 41
497711.08 5420066.15 338.81 42
497711.63 5420066.8 338.82 62
497710.09 5420067.46 338.79 48
497710.1 5420066.26 338.83 50
497711.63 5420066.42 338.82 70
497712 5420066.84 338.84 43
497711.62 5420067.56 338.82 62
497710.72 5420067.38 338.8 67
497711.62 5420067.18 338.8 66
497717.71 5420070.13 340.94 55
497704.29 5420062.94 339.68 52
497703.34 5420062.64 339.68 47
497703.33 5420063.43 339.69 53
497703.33 5420063.03 339.68 54
497703.95 5420062.6 339.67 69
497703.34 5420062.25 339.68 47
497703.94 5420063.72 339.7 78
497703.94 5420063.35 339.69 73
497703.96 5420061.87 339.67 69
497704.93 5420061.89 339.68 70
497704.91 5420063.75 339.73 57
497703.35 5420061.84 339.68 51
497704.93 5420062.25 339.67 69
497704.29 5420063.72 339.68 52
497704.92 5420063 339.69 71
497704.31 5420061.75 339.67 50
497704.3 5420062.53 339.66 44
497704.3 5420062.14 339.66 50
497704.92 5420063.36 339.69 73
497704.93 5420062.63 339.67 71
497703.96 5420062.23 339.68 63
497703.95 5420062.98 339.68 71
497704.29 5420063.32 339.66 53
497713.55 5420060.63 338.82 83
497712.64 5420059.74 338.82 67
497712.97 5420061.42 338.79 34
497712.99 5420059.83 338.79 45
497713.54 5420061.36 338.82 78
497712.06 5420060.47 338.8 61
497713.55 5420060.99 338.83 78
497712.64 5420059.37 338.81 74
497712.63 5420060.49 338.78 69
497712.98 5420061.02 338.79 38
497713.93 5420059.84 338.8 51
497713.92 5420061.03 338.8 55
497713.56 5420059.52 338.81 77
497713.93 5420060.23 338.79 47
497712.07 5420059.68 338.82 52
497712.06 5420060.21 339.72 5
497712.63 5420060.85 338.81 59
497712.99 5420059.44 338.81 45
497713.55 5420060.25 338.81 82
497712.98 5420060.23 338.78 39
497712.06 5420060.86 338.81 64
497712.63 5420061.23 338.79 59
497713.93 5420059.44 338.8 55
497713.92 5420060.63 338.79 57
497713.56 5420059.88 338.82 77
497712.05 5420061.26 338.8 57
497712.98 5420060.62 338.78 40
497712.64 5420060.11 338.79 67
497713.91 5420061.42 338.8 48
497706.87 5420062.48 339.67 88
497705.31 5420062.72 339.66 49
497705.91 5420063.3 339.75 41
497706.86 5420063.46 338.78 93
497706.28 5420061.76 339.67 42
497707.26 5420062.6 339.75 24
497705.31 5420062.32 339.68 43
497705.92 5420062.55 339.67 73
497707.25 5420063.25 338.76 55
497705.32 5420061.92 339.65 47
497706.88 5420061.73 339.64 67
497705.3 5420063.51 339.69 51
497705.92 5420062.17 339.64 69
497705.3 5420063.78 338.82 15
497706.87 5420062.86 339.77 41
497706.27 5420062.95 339.69 52
497705.91 5420063.55 338.9 45
497706.28 5420062.16 339.66 49
497707.26 5420062.19 339.66 58
497705.3 5420063.11 339.67 55
497706.88 5420062.1 339.68 62
497706.26 5420063.62 338.78 55
497706.27 5420063.22 338.8 1
497705.93 5420061.8 339.68 71
497707.25 5420063.65 338.79 60
497706.27 5420062.55 339.66 42
497706.87 5420063.09 338.79 66
497707.26 5420062.86 338.76 71
497707.26 5420061.8 339.64 46
497705.92 5420062.91 339.67 72
497713.89 5420064.99 338.8 49
497712.94 5420064.99 338.82 40
497712.02 5420064.84 338.8 50
497712.58 5420065.32 338.81 63
497712.94 5420065.78 338.8 32
497712.02 5420064.44 338.81 52
497712.59 5420064.96 338.81 63
497713.88 5420065.79 338.81 48
497712.58 5420065.7 338.82 63
497713.9 5420063.8 338.81 50
497713.51 5420064.72 338.81 89
497713.51 5420064.34 338.81 73
497712.03 5420064.04 338.79 46
497712.6 5420064.2 338.81 59
497713.5 5420065.84 338.81 64
497712.95 5420064.58 338.8 46
497713.51 5420065.09 338.81 85
497713.52 5420063.97 338.81 78
497712.59 5420064.58 338.81 59
497712.01 5420066.04 338.81 44
497713.88 5420065.39 338.81 49
497712.02 5420065.23 338.8 46
497712.95 5420064.19 338.77 46
497713.5 5420065.46 338.8 73
497712.94 5420065.38 338.78 37
497712.01 5420065.64 338.82 45
497712.6 5420063.83 338.79 76
497713.89 5420064.6 338.8 45
497713.89 5420064.2 338.8 47
497707.9 5420058 339.66 59
497708.22 5420058.43 339.67 50
497707.9 5420057.62 339.65 66
497709.18 5420058.91 339.65 44
497707.91 5420057.25 339.67 70
497709.2 5420057.33 339.66 43
497708.22 5420059.21 339.66 54
497707.89 5420058.73 339.67 58
497708.23 5420058.03 339.65 48
497708.88 5420057.13 339.65 62
497708.22 5420058.81 339.66 51
497708.23 5420057.64 339.66 53
497708.86 5420058.98 339.68 68
497708.87 5420058.24 339.66 52
497709.19 5420058.12 339.62 45
497708.24 5420057.25 339.67 53
497708.87 5420058.61 339.65 65
497707.89 5420059.1 339.65 63
497709.19 5420057.73 339.65 45
497708.87 5420057.87 339.67 65
497708.88 5420057.5 339.65 79
497707.89 5420058.37 339.66 55
497709.19 5420058.51 339.64 43
497711.15 5420058.22 338.81 29
497710.83 5420057.34 338.79 98
497711.72 5420058.23 338.8 75
497710.16 5420059.25 339.67 46
497710.18 5420057.67 339.67 62
497711.15 5420058.75 339.76 17
497711.71 5420058.97 338.81 65
497711.16 5420057.43 338.8 73
497710.17 5420058.06 339.65 55
497709.83 5420058.64 339.67 75
497710.17 5420058.45 339.65 54
497710.17 5420058.85 339.67 53
497710.82 5420058.23 339.74 27
497711.73 5420057.12 338.79 64
497709.82 5420059.01 339.67 76
497711.72 5420057.86 338.79 68
497711.71 5420058.61 338.81 78
497711.73 5420057.5 338.79 81
497709.83 5420057.89 339.66 82
497710.81 5420058.59 339.69 64
497710.82 5420057.86 339.74 25
497709.83 5420058.27 339.66 75
497710.81 5420058.95 339.68 62
497709.84 5420057.16 339.67 73
497711.16 5420057.82 338.78 73
497711.14 5420059.14 339.72 23
497710.18 5420057.29 339.73 31
497709.84 5420057.54 339.68 74
497707.83 5420064.17 338.78 60
497707.82 5420065.3 338.8 67
497708.79 5420065.55 338.81 64
497709.75 5420065.76 340.07 37
497707.81 5420065.67 338.79 62
497709.14 5420063.92 338.8 39
497708.79 5420065.17 338.81 63
497709.75 5420065.97 338.86 38
497708.8 5420064.8 338.8 54
497708.16 5420064.63 338.78 55
497708.16 5420065.03 338.79 52
497708.15 5420065.83 338.8 54
497708.81 5420064.04 338.79 59
497707.82 5420064.92 338.79 68
497708.78 5420065.92 338.81 75
497709.12 5420065.51 338.78 36
497709.13 5420064.32 338.78 42
497709.12 5420065.92 338.8 43
497708.8 5420064.43 338.82 64
497707.83 5420064.54 338.79 62
497707.81 5420066.04 338.81 61
497708.17 5420063.84 338.77 51
497709.13 5420064.72 338.79 41
497707.83 5420063.8 338.78 60
497709.12 5420065.11 338.81 48
497708.16 5420065.42 338.79 60
497708.17 5420064.23 338.8 59
497715.41 5420066.76 338.79 67
497715.4 5420067.53 338.79 85
497714.82 5420067.91 338.92 24
497715.76 5420067.87 338.8 59
497714.83 5420067.49 338.82 62
497716.33 5420067.64 338.79 62
497716.34 5420066.05 338.8 61
497714.84 5420066.29 338.79 59
497716.34 5420066.45 338.78 57
497715.77 5420067.46 338.8 65
497716.33 5420066.85 338.8 59
497714.46 5420067.43 338.82 64
497715.42 5420066.37 338.78 57
497714.47 5420066.29 338.8 69
497714.46 5420067.06 338.79 68
497714.83 5420067.09 338.8 62
497715.77 5420066.67 338.79 59
497715.77 5420066.26 338.79 48
497714.47 5420066.67 338.8 58
497715.77 5420067.06 338.79 63
497714.46 5420067.81 338.81 89
497715.41 5420067.15 338.8 71
497714.83 5420066.69 338.78 54
497715.4 5420067.93 338.8 81
497714.45 5420068.2 338.91 2
497715.76 5420068.26 338.8 63
497716.33 5420067.24 338.8 60
497702 5420058.26 339.68 53
497701.41 5420057.81 339.72 24
497702.01 5420057.89 339.67 64
497701.42 5420057.26 338.77 58
497701.05 5420057.15 338.79 86
497702 5420058.62 339.68 60
497702.32 5420059.05 339.66 51
497701.02 5420059.12 339.67 68
497701.4 5420058.19 339.66 45
497701.03 5420058.02 339.68 57
497701.03 5420058.39 339.68 75
497702.02 5420057.16 339.75 20
497702.33 5420058.26 339.66 49
497701.04 5420057.64 339.56 8
497701.39 5420058.97 339.66 46
497701.4 5420058.58 339.67 50
497702.34 5420057.48 339.67 58
497702.35 5420057.1 339.76 22
497702.33 5420058.65 339.66 43
497701.02 5420058.76 339.68 73
497702.01 5420057.52 339.67 68
497701.99 5420058.99 339.67 63
497702.34 5420057.86 339.66 47
497700.99 5420061.6 338.9 37
497701.94 5420062.94 338.77 71
497701.95 5420062.32 339.69 6
497702.96 5420062.77 339.69 60
497702.28 5420062.99 339.66 2
497702.97 5420062.41 339.67 62
497700.98 5420061.97 338.95 33
497701.35 5420062.8 338.9 6
497701.95 5420062.56 338.75 64
497702.97 5420062.04 339.68 53
497701.95 5420061.97 339.75 25
497701.35 5420062.41 338.92 23
497701.96 5420061.58 339.7 40
497702.28 5420063.26 338.77 50
497701.37 5420061.6 338.78 59
497702.29 5420061.81 339.69 51
497702.98 5420061.66 339.65 54
497701.93 5420063.7 338.95 33
497702.95 5420063.53 339.73 32
497701.36 5420061.99 338.78 41
497701.94 5420063.32 338.92 32
497702.27 5420063.65 338.74 33
497702.28 5420062.61 339.74 20
497702.96 5420063.15 339.68 66
497702.29 5420062.2 339.68 36
497720.27 5420067.55 338.8 60
497720.28 5420067.17 338.82 64
497719.31 5420068.14 338.8 61
497719.31 5420067.36 338.78 52
497719.72 5420068.16 338.93 12
497719.31 5420067.75 338.78 44
497720.73 5420067.64 338.82 63
497720.74 5420066.44 338.79 58
497719.32 5420066.96 338.79 50
497719.73 5420066.94 338.78 59
497720.28 5420066.37 338.81 67
497719.72 5420067.74 338.79 50
497720.73 5420068.04 338.8 70
497719.73 5420066.13 338.79 63
497720.73 5420066.84 338.79 60
497719.32 5420066.57 338.8 51
497719.72 5420067.33 338.77 44
497720.73 5420067.23 338.79 63
497719.73 5420066.54 338.79 54
497719.32 5420066.18 338.79 52
497720.27 5420067.95 338.83 73
497715.76 5420068.66 338.8 71
497715.4 5420068.34 338.91 27
497718.36 5420061.56 338.79 25
497717.35 5420062.18 339.96 36
497718.35 5420063.54 338.79 52
497717.77 5420062.46 338.8 44
497716.78 5420063.02 338.84 68
497716.78 5420062.6 338.81 49
497717.76 5420062.86 338.77 57
497717.34 5420063.58 338.77 55
497717.34 5420063.19 338.81 53
497716.78 5420063.41 338.8 54
497718.35 5420062.75 338.81 51
497718.35 5420063.15 338.8 53
497716.79 5420062.2 338.85 42
497717.36 5420061.78 339.96 41
497717.76 5420063.28 338.79 40
497716.79 5420061.78 338.81 64
497717.35 5420062.43 338.95 8
497717.35 5420062.79 338.78 47
497717.76 5420063.69 338.87 9
497718.36 5420062.36 338.8 55
497717.77 5420062.22 339.94 96
497717.77 5420061.65 338.81 60
497718.36 5420061.96 338.8 50
497718.79 5420058.99 338.46 32
497719.78 5420058.85 338.04 27
497720.35 5420058.5 338.46 21
497720.35 5420058.13 338.57 63
497706.3 5420060.18 339.66 58
497706.9 5420059.88 339.68 64
497706.89 5420060.63 339.66 70
497705.33 5420060.35 339.65 55
497705.34 5420059.95 339.65 63
497705.95 5420060.31 339.65 76
497705.95 5420059.94 339.65 74
497705.32 5420061.14 339.68 52
497706.29 5420060.58 339.66 49
497705.94 5420060.69 339.69 69
497706.3 5420059.78 339.65 44
497707.27 5420061.41 339.68 54
497707.29 5420059.44 339.64 63
497707.27 5420061.01 339.67 55
497705.93 5420061.42 339.66 83
497707.28 5420060.23 339.67 61
497706.9 5420060.25 339.68 69
497705.32 5420061.53 339.65 55
497706.91 5420059.51 339.67 50
497706.89 5420060.99 339.68 57
497705.34 5420059.56 339.66 52
497705.94 5420061.06 339.67 73
497705.33 5420060.74 339.66 60
497705.96 5420059.57 339.67 71
497706.28 5420061.36 339.67 44
497706.31 5420059.4 339.65 55
497707.28 5420060.62 339.65 47
497707.28 5420059.83 339.65 49
497706.29 5420060.96 339.66 49
497706.88 5420061.36 339.66 80
497702.27 5420064.08 338.93 27
497702.95 5420063.91 339.75 31
497702.95 5420064.14 338.78 27
497702.26 5420064.48 339.05 31
497720.78 5420060.08 338.8 57
497719.38 5420059.95 338.92 33
497720.33 5420061.27 338.78 50
497719.77 5420061.35 338.79 42
497720.34 5420059.72 338.86 34
497720.77 5420061.27 338.81 60
497720.78 5420060.87 338.81 62
497718.78 5420061.38 338.8 48
497719.37 5420060.72 338.8 50
497719.77 5420060.95 338.78 50
497720.78 5420060.47 338.79 64
497720.34 5420060.5 338.78 46
497719.77 5420060.55 338.81 47
497719.78 5420059.35 338.72 79
497719.37 5420061.11 338.8 44
497720.34 5420060.11 338.79 53
497720.35 5420059.34 338.93 29
497719.36 5420061.49 338.79 44
497719.37 5420060.33 338.82 60
497720.79 5420059.31 338.96 41
497718.79 5420060.22 338.91 29
497719.77 5420060.17 338.8 59
497720.33 5420060.88 338.8 47
497718.78 5420060.6 338.8 50
497718.78 5420061 338.8 49
497720.78 5420059.68 338.8 62
497719.38 5420059.54 338.66 54
497719.78 5420059.79 338.94 29
497720.72 5420068.43 338.77 49
497720.71 5420069.64 338.77 66
497720.72 5420068.84 338.79 49
497720.71 5420070.05 338.86 62
497720.27 5420068.35 338.81 63
497719.71 5420069.77 338.87 52
497719.3 5420068.56 338.92 20
497719.71 5420068.56 338.88 2
497720.25 5420069.92 338.77 91
497719.7 5420070.13 338.7 41
497720.72 5420069.25 338.82 41
497703.39 5420057.9 339.65 57
497704.03 5420057.05 339.65 70
497704.34 5420058.6 339.64 47
497704.01 5420058.16 339.67 77
497703.38 5420059.08 339.65 47
497703.4 5420057.51 339.64 51
497704.02 5420057.43 339.67 65
497704.35 5420057.82 339.65 51
497703.02 5420058.71 339.66 51
497704 5420059.27 339.67 75
497703.38 5420058.69 339.65 57
497704 5420058.9 339.66 64
497703.4 5420057.12 339.64 53
497704.02 5420057.8 339.67 78
497704.01 5420058.53 339.67 73
497704.98 5420058.54 339.65 57
497704.97 5420059.29 339.67 64
497704.34 5420058.99 339.65 57
497704.99 5420057.82 339.66 71
497704.97 5420058.92 339.65 72
497703.01 5420059.07 339.65 72
497703.03 5420057.61 339.66 52
497704.99 5420057.45 339.67 76
497703.03 5420057.97 339.65 59
497703.39 5420058.3 339.65 49
497704.98 5420058.19 339.66 76
497703.02 5420058.34 339.66 51
497704.35 5420058.21 339.65 51
497704.36 5420057.42 339.64 44
497705 5420057.07 339.65 81
497703.04 5420057.24 339.66 63
497699.98 5420059.08 338.79 78
497700 5420057.27 338.94 39
497700.35 5420058.82 339.75 26
497699.33 5420058.12 338.82 53
497699.99 5420057.98 338.79 81
497700.37 5420057.49 338.79 61
497700 5420057.62 338.83 89
497698.97 5420057.75 338.95 36
497700.36 5420058.04 339.74 2
497698.97 5420057.37 338.95 38
497699.34 5420057.74 338.91 30
497699.32 5420058.93 338.93 19
497699.98 5420058.5 339.78 37
497700.37 5420057.13 338.93 22
497699.33 5420058.54 338.93 29
497699.98 5420058.72 338.79 91
497700.35 5420058.43 339.69 48
497698.96 5420058.12 338.95 38
497699.34 5420057.36 338.93 29
497700.34 5420059.22 339.77 15
497718.32 5420066.73 338.81 49
497718.32 5420066.32 338.79 57
497717.31 5420066.36 338.79 49
497716.75 5420066.27 338.8 54
497717.3 5420067.55 338.79 58
497716.75 5420067.5 338.8 62
497718.74 5420066.88 338.82 59
497718.31 5420067.12 338.8 66
497717.73 5420067.8 338.79 53
497716.75 5420067.1 338.8 61
497717.72 5420068.19 338.79 59
497717.31 5420067.16 338.81 49
497717.31 5420066.75 338.78 53
497718.31 5420067.52 338.79 65
497717.3 5420068.13 340.11 47
497717.73 5420066.97 338.81 54
497718.73 5420067.27 338.78 46
497718.73 5420067.67 338.79 45
497718.74 5420066.49 338.8 52
497716.74 5420067.92 338.8 81
497717.73 5420067.38 338.81 62
497718.73 5420068.06 338.79 41
497718.74 5420066.09 338.79 46
497716.75 5420066.68 338.79 54
497718.31 5420067.92 338.77 55
497717.74 5420066.15 338.78 51
497717.74 5420066.55 338.8 53
497704.31 5420061.36 339.67 45
497704.33 5420060.17 339.65 48
497703.99 5420059.64 339.68 75
497703.99 5420060.01 339.67 83
497704.94 5420061.13 339.65 66
497703.35 5420061.05 339.67 48
497704.33 5420059.78 339.64 65
497703.35 5420061.44 339.65 54
497704.96 5420060.03 339.69 72
497703.37 5420059.87 339.67 51
497703.98 5420060.74 339.66 66
497703.97 5420061.12 339.67 63
497704.32 5420060.57 339.64 46
497703.36 5420060.26 339.64 46
497703.37 5420059.48 339.64 50
497703.97 5420061.49 339.67 63
497703.01 5420059.44 339.65 63
497703.36 5420060.66 339.66 49
497704.94 5420061.51 339.69 61
497704.95 5420060.78 339.68 70
497704.95 5420060.4 339.67 75
497703.98 5420060.39 339.68 65
497704.33 5420059.39 339.64 52
497704.32 5420060.96 339.66 43
497704.96 5420059.67 339.66 36
497708.75 5420069.31 338.92 33
497709.7 5420070.11 338.81 82
497709.7 5420070.49 338.92 37
497709.09 5420068.32 338.8 37
497709.09 5420068.72 338.79 45
497708.75 5420068.55 338.79 68
497708.12 5420069.03 338.75 101
497709.08 5420069.52 338.85 17
497709.71 5420069.34 338.81 71
497709.71 5420068.97 338.79 70
497709.72 5420068.59 338.81 68
497709.71 5420069.72 338.81 78
497709.08 5420069.94 338.93 20
497708.75 5420068.94 338.92 27
497709.08 5420069.11 338.78 38
497720.29 5420065.19 338.78 59
497720.74 5420065.64 338.81 61
497719.74 5420064.53 338.79 51
497719.74 5420065.34 338.78 49
497719.34 5420064.61 338.79 55
497720.29 5420065.58 338.79 58
497720.29 5420065.97 338.8 65
497720.3 5420064.39 338.76 46
497718.76 5420064.12 338.81 58
497720.75 5420065.24 338.78 59
497719.34 5420064.22 338.79 49
497720.75 5420064.04 338.78 54
497720.74 5420066.03 338.78 60
497720.75 5420064.45 338.8 57
497720.3 5420064.01 338.78 48
497719.33 5420065.01 338.81 52
497719.75 5420064.15 338.81 44
497719.33 5420065.79 338.8 51
497720.75 5420064.84 338.79 53
497719.34 5420063.84 338.78 52
497719.74 5420064.93 338.79 49
497719.33 5420065.39 338.79 52
497720.3 5420064.79 338.79 58
497719.74 5420065.73 338.79 47
497717.38 5420059.25 338.76 57
497717.4 5420057.29 338.8 68
497716.81 5420058.55 338.8 58
497717.79 5420059.21 338.8 62
497717.38 5420058.86 338.8 58
497717.39 5420057.71 338.94 22
497716.81 5420058.96 338.8 61
497717.39 5420058.1 338.91 21
497717.39 5420058.46 338.78 61
497716.82 5420058.15 338.83 57
497716.82 5420057.76 338.91 21
497717.79 5420058.82 338.91 19
497716.82 5420057.34 338.81 59
497717.81 5420057.2 338.91 21
497717.8 5420058.41 338.94 3
497707.22 5420066.07 338.92 20
497706.83 5420066.19 339.65 127
497707.22 5420066.46 338.95 27
497712.91 5420068.57 338.8 33
497712.55 5420068.7 338.75 14
497712.55 5420068.33 338.81 69
497713.47 5420068.46 338.89 33
497720.79 5420058.5 338.8 4
497719.79 5420058.17 338.76 90
497719.79 5420057.77 338.69 64
497719.39 5420058 338.74 61
497719.79 5420058.58 338.8 55
497719.39 5420058.39 338.77 69
497720.35 5420058.96 338.95 36
497719.38 5420059.16 338.79 10
497719.39 5420058.76 338.72 73
497720.79 5420058.88 338.66 53
497710.07 5420069.06 338.8 49
497710.07 5420069.46 338.78 41
497710.71 5420068.51 338.8 74
497711.61 5420068.3 338.81 72
497711.06 5420068.55 338.81 37
497711.99 5420068.43 338.82 50
497710.7 5420068.89 338.81 79
497711.98 5420068.84 338.81 20
497710.08 5420068.66 338.8 57
497700.34 5420059.85 338.74 45
497699.96 5420060.21 338.92 4
497699.96 5420059.85 338.94 32
497700.34 5420059.47 338.76 50
497700.33 5420060.68 338.95 18
497699.97 5420059.47 338.86 17
497700.33 5420060.28 338.95 18
497710.67 5420072.04 339.89 17
497704.28 5420064.13 339.73 26
497704.91 5420063.99 338.81 39
497703.93 5420064.1 339.69 91
497703.32 5420063.83 339.69 58
497718.79 5420059.77 338.46 9
497718.27 5420072.53 340.46 39
497720.26 5420069.47 338.3 83
497706.34 5420055.86 339.65 52
497706.96 5420055.1 339.66 68
497706.95 5420055.83 339.66 63
497705.38 5420056.03 339.64 52
497706.33 5420057.04 339.65 47
497707.33 5420055.51 339.66 60
497705.38 5420056.42 339.67 50
497707.32 5420056.3 339.66 49
497706.01 5420055.17 339.75 37
497705.37 5420056.81 339.63 57
497706.96 5420055.47 339.64 82
497707.33 5420055.13 339.66 53
497705.99 5420056.63 339.65 64
497706.35 5420055.47 339.63 53
497706 5420056.26 339.64 64
497707.32 5420055.91 339.65 47
497705.4 5420055.1 338.75 44
497706.94 5420056.57 339.65 63
497706 5420055.89 339.66 63
497705.39 5420055.65 339.7 14
497706.01 5420055.52 339.67 65
497706.34 5420056.25 339.65 48
497707.32 5420056.68 339.66 48
497706.94 5420056.93 339.65 69
497705.99 5420056.99 339.68 80
497706.35 5420055.1 339.75 18
497706.33 5420056.65 339.64 57
497706.95 5420056.2 339.65 59
497708.94 5420052.27 338.96 29
497709.25 5420052.53 338.92 19
497709.25 5420052.15 338.94 19
497709.88 5420054.45 338.8 82
497710.88 5420052.95 338.8 71
497710.21 5420054 338.8 50
497711.77 5420053.81 338.78 72
497711.2 5420052.74 338.8 61
497710.88 5420053.31 338.77 70
497711.76 5420054.18 338.8 80
497711.77 5420053.08 338.79 70
497711.19 5420053.9 338.78 55
497710.21 5420054.4 338.79 48
497711.19 5420054.69 338.79 60
497710.87 5420053.67 338.78 74
497710.23 5420052.84 338.82 62
497710.87 5420054.04 338.81 65
497710.22 5420053.62 338.79 57
497711.2 5420053.13 338.78 60
497711.78 5420052.71 338.8 72
497710.86 5420054.77 338.8 73
497709.89 5420052.98 338.78 93
497711.76 5420054.55 338.81 63
497709.9 5420052.63 338.82 96
497710.22 5420053.23 338.79 53
497709.89 5420053.36 338.82 96
497711.77 5420053.45 338.8 69
497711.2 5420053.51 338.81 63
497710.21 5420054.79 338.79 60
497709.88 5420054.09 338.81 78
497710.86 5420054.41 338.8 69
497710.88 5420052.58 338.81 69
497711.19 5420054.3 338.77 61
497709.88 5420053.72 338.8 79
497715.87 5420054.41 338.8 60
497714.93 5420054.43 338.76 61
497715.88 5420052.84 338.76 59
497715.53 5420054.09 338.81 68
497715.87 5420053.62 338.79 67
497714.59 5420053.6 338.74 60
497714.94 5420053.26 338.76 49
497714.94 5420054.04 338.76 45
497715.87 5420054.02 338.78 55
497716.45 5420054.72 338.79 67
497715.53 5420054.45 338.77 74
497715.53 5420053.7 338.79 71
497714.94 5420052.88 338.79 61
497715.88 5420053.23 338.76 55
497716.45 5420053.94 338.79 62
497715.54 5420053.32 338.79 55
497716.46 5420053.17 338.8 63
497714.94 5420053.65 338.75 67
497715.54 5420052.56 338.79 68
497714.6 5420053.23 338.77 64
497714.59 5420053.98 338.77 58
497714.59 5420054.35 338.76 67
497714.6 5420052.9 338.89 50
497716.46 5420052.78 338.79 53
497715.54 5420052.94 338.78 71
497716.45 5420054.32 338.77 62
497716.46 5420053.56 338.79 57
497714.58 5420054.73 338.9 70
497716.83 5420056.53 338.8 57
497717.82 5420055.16 338.77 53
497716.83 5420056.93 338.8 58
497718.41 5420056.46 338.8 54
497718.41 5420056.07 338.8 58
497716.84 5420054.92 338.78 54
497716.84 5420055.32 338.79 55
497718.42 5420055.69 338.81 58
497718.43 5420054.9 338.79 50
497717.41 5420055.74 338.79 52
497717.41 5420056.12 338.79 58
497717.82 5420055.56 338.78 65
497717.81 5420056.77 338.8 54
497718.42 5420055.29 338.78 60
497717.81 5420055.97 338.79 63
497717.42 5420055.35 338.76 54
497718.41 5420056.88 338.91 27
497717.81 5420056.37 338.79 55
497716.84 5420055.72 338.76 66
497717.4 5420056.91 338.79 61
497716.83 5420056.13 338.79 55
497717.4 5420056.51 338.78 51
497717.42 5420054.96 338.78 49
497714.98 5420048.23 338.78 71
497715.58 5420048.79 338.78 75
497715.91 5420048.57 338.79 70
497714.63 5420049.95 338.79 72
497716.5 5420048.59 338.8 80
497714.97 5420049.77 338.77 52
497715.58 5420048.41 338.79 74
497715.57 5420049.92 338.79 74
497714.65 5420048.13 338.8 68
497714.98 5420048.61 338.77 73
497716.5 5420049.34 338.79 64
497716.5 5420048.96 338.81 76
497714.64 5420048.85 338.77 72
497714.97 5420049.39 338.8 66
497715.92 5420048.18 338.79 59
497716.49 5420049.73 338.79 63
497716.49 5420050.11 338.78 61
497714.97 5420050.15 338.77 61
497715.58 5420049.16 338.78 70
497714.98 5420049 338.79 63
497715.91 5420048.96 338.78 66
497714.63 5420049.57 338.78 62
497714.64 5420048.49 338.8 72
497715.57 5420049.54 338.8 79
497714.64 5420049.22 338.76 69
497715.9 5420049.73 338.79 67
497715.9 5420050.12 338.79 70
497715.91 5420049.34 338.81 66
497717.83 5420053.97 338.8 48
497717.43 5420053.79 338.8 52
497717.43 5420053.42 338.81 51
497716.85 5420053.71 338.77 60
497717.43 5420054.19 338.79 52
497718.44 5420053.74 338.81 54
497717.83 5420053.15 338.79 53
497716.86 5420052.92 338.79 59
497717.42 5420054.58 338.79 57
497718.45 5420052.57 338.81 65
497717.82 5420054.77 338.81 50
497717.44 5420053.03 338.79 51
497718.43 5420054.13 338.78 51
497716.85 5420054.53 338.8 53
497716.85 5420053.33 338.79 53
497717.83 5420053.56 338.81 50
497716.85 5420054.12 338.8 65
497717.83 5420054.35 338.77 46
497718.44 5420053.35 338.79 59
497718.44 5420052.96 338.79 60
497718.43 5420054.52 338.76 55
497717.84 5420052.76 338.8 59
497717.44 5420052.64 338.8 61
497716.89 5420048.57 338.93 29
497717.47 5420049.94 338.81 96
497716.88 5420049.75 338.8 72
497716.51 5420048.2 338.8 93
497717.86 5420049.98 338.93 4
497716.88 5420050.14 338.8 59
497716.88 5420049.35 338.8 88
497716.89 5420048.95 338.8 73
497716.89 5420048.31 339.65 67
497717.47 5420049.57 338.92 25
497707.94 5420054.69 339.67 69
497709.23 5420054.06 338.79 44
497709.23 5420054.45 338.78 48
497708.28 5420053.59 338.78 52
497707.96 5420053.11 338.94 32
497707.95 5420053.82 338.81 36
497707.96 5420053.45 338.79 77
497708.91 5420054.58 339.75 31
497709.24 5420053.29 338.79 35
497708.28 5420053.2 338.79 61
497709.24 5420052.89 338.78 50
497707.96 5420052.75 338.96 37
497708.93 5420053.33 338.78 72
497708.28 5420052.84 338.94 23
497709.24 5420053.68 338.79 43
497708.94 5420052.62 338.96 35
497708.93 5420052.96 338.79 76
497707.94 5420054.33 339.68 63
497708.93 5420053.69 338.79 62
497708.92 5420054.21 339.75 27
497708.26 5420054.52 339.68 54
497708.27 5420054.13 339.71 41
497708.9 5420055.3 339.68 68
497708.89 5420056.41 339.66 65
497707.92 5420056.52 339.68 62
497708.25 5420055.69 339.68 53
497709.22 5420055.4 339.74 15
497707.92 5420056.15 339.65 14
497707.93 5420055.06 339.67 71
497708.25 5420055.29 339.66 53
497708.25 5420056.08 339.67 55
497708.9 5420056.04 339.67 58
497708.89 5420056.76 339.67 70
497709.2 5420056.95 339.65 39
497708.26 5420054.91 339.66 50
497707.92 5420055.78 339.68 69
497708.9 5420055.67 339.69 60
497707.93 5420055.43 339.67 65
497709.21 5420056.16 339.68 41
497708.24 5420056.85 339.65 47
497709.2 5420056.55 339.66 43
497707.91 5420056.89 339.66 55
497708.91 5420054.94 339.68 20
497709.21 5420055.78 339.67 43
497708.24 5420056.46 339.66 48
497709.22 5420055 339.75 20
497712.69 5420054.58 338.8 62
497713.98 5420053.16 338.78 41
497713.04 5420053.17 338.78 47
497712.71 5420053.48 338.79 77
497713.04 5420053.94 338.79 42
497712.12 5420054.18 338.79 60
497712.11 5420054.57 338.78 57
497713.05 5420052.78 338.8 15
497713.63 5420052.92 338.9 120
497713.61 5420054.37 338.77 87
497713.98 5420053.55 338.75 72
497713.62 5420053.63 338.8 108
497713.97 5420054.73 338.78 51
497712.71 5420052.76 338.79 44
497712.13 5420053.01 338.78 57
497713.61 5420054.73 338.78 81
497712.7 5420054.23 338.81 65
497713.99 5420052.78 338.76 68
497712.12 5420053.8 338.79 62
497712.12 5420053.4 338.79 57
497712.71 5420053.12 338.79 74
497713.04 5420053.56 338.78 50
497713.62 5420053.28 338.83 19
497712.13 5420052.63 338.81 67
497713.97 5420054.34 338.77 47
497713.03 5420054.34 338.78 44
497713.62 5420054 338.79 90
497713.98 5420053.95 338.75 59
497712.7 5420053.85 338.78 70
497713.03 5420054.73 338.8 44
497715.85 5420055.97 338.77 50
497714.92 5420055.61 338.76 55
497715.52 5420055.22 338.78 79
497716.43 5420056.65 338.78 55
497715.85 5420056.36 338.77 51
497716.43 5420057.04 338.8 64
497716.44 5420055.11 338.8 64
497715.86 5420054.8 338.81 68
497714.56 5420056.57 338.79 61
497714.58 5420055.1 338.85 99
497715.86 5420055.19 338.79 53
497714.57 5420055.46 338.78 65
497714.56 5420056.93 338.81 70
497715.85 5420056.76 338.79 62
497716.43 5420056.26 338.77 67
497715.86 5420055.58 338.77 59
497714.91 5420056.78 338.78 48
497714.93 5420054.83 338.75 46
497715.51 5420056.77 338.91 63
497714.57 5420055.82 338.78 67
497716.44 5420055.49 338.82 69
497715.51 5420056.37 338.82 77
497714.57 5420056.19 338.77 64
497715.52 5420054.84 338.79 67
497714.92 5420056.01 338.77 50
497715.51 5420055.98 338.77 62
497716.44 5420055.87 338.78 65
497714.92 5420056.4 338.78 57
497714.93 5420055.21 338.77 50
497715.52 5420055.59 338.76 70
497716.47 5420052.02 338.78 55
497714.96 5420051.32 338.77 66
497714.62 5420050.67 338.8 72
497714.96 5420050.55 338.78 65
497715.89 5420052.1 338.97 88
497714.95 5420052.51 338.98 85
497715.55 5420052.19 338.86 85
497715.55 5420051.81 338.78 83
497716.49 5420050.49 338.79 59
497716.48 5420050.87 338.78 68
497716.47 5420052.4 338.77 63
497714.95 5420051.71 338.76 66
497715.57 5420050.3 338.81 76
497714.62 5420051.04 338.8 70
497715.56 5420051.43 338.78 69
497714.95 5420052.1 338.77 72
497715.89 5420051.28 338.76 63
497714.96 5420050.94 338.8 71
497715.89 5420051.69 338.83 74
497716.48 5420051.26 338.78 74
497714.62 5420050.31 338.77 65
497715.56 5420050.68 338.79 72
497715.9 5420050.51 338.78 57
497715.56 5420051.05 338.77 75
497714.61 5420051.41 338.79 61
497714.61 5420052.13 338.78 72
497714.6 5420052.53 338.93 52
497715.88 5420052.45 338.77 50
497715.89 5420050.89 338.78 60
497714.61 5420051.78 338.76 60
497716.48 5420051.63 338.78 71
497710.89 5420052.22 338.8 80
497710.23 5420052.46 338.83 90
497709.9 5420051.92 338.96 38
497711.21 5420051.95 338.79 65
497711.79 5420051.99 338.8 78
497710.9 5420051.12 338.82 105
497711.21 5420052.34 338.8 62
497711.23 5420050.4 338.8 64
497709.9 5420052.27 338.84 41
497710.23 5420052.07 338.87 16
497711.79 5420051.62 338.8 79
497711.22 5420051.58 338.85 17
497711.22 5420050.78 338.79 45
497710.9 5420051.51 338.95 30
497711.22 5420051.18 338.81 17
497711.8 5420050.9 338.8 79
497710.89 5420051.85 338.79 101
497711.8 5420050.53 338.81 67
497711.78 5420052.36 338.86 49
497711.79 5420051.26 338.8 71
497700.01 5420056.9 338.94 43
497700.38 5420056.74 338.94 29
497709.87 5420054.82 338.81 93
497711.75 5420055.28 338.81 71
497710.2 5420055.57 338.81 63
497710.84 5420056.24 338.81 74
497711.75 5420054.92 338.79 67
497710.2 5420055.97 338.8 75
497711.17 5420055.87 338.8 64
497710.2 5420055.17 338.79 65
497710.85 5420055.87 338.8 75
497711.74 5420056.02 338.8 71
497710.84 5420056.98 338.81 120
497710.18 5420056.89 339.74 23
497710.85 5420055.51 338.79 65
497709.85 5420056.8 339.7 68
497710.19 5420056.35 338.82 38
497711.17 5420056.25 338.81 67
497709.87 5420055.2 338.81 89
497711.73 5420056.75 338.81 73
497711.74 5420056.39 338.79 72
497711.75 5420055.65 338.82 66
497709.85 5420056.45 339.77 41
497710.86 5420055.14 338.8 64
497711.18 5420055.08 338.82 60
497711.17 5420056.65 338.81 71
497711.18 5420055.47 338.78 67
497709.86 5420055.56 338.81 104
497710.84 5420056.61 338.8 79
497709.85 5420056.08 339.77 40
497711.16 5420057.04 338.8 63
497714.02 5420048.14 338.8 60
497712.74 5420049.84 338.79 76
497713.67 5420048.2 338.82 88
497713.08 5420049.3 338.79 42
497713.08 5420048.52 338.8 64
497714.01 5420049.29 338.78 57
497713.67 5420048.91 338.8 93
497713.07 5420050.06 338.77 45
497714.02 5420048.52 338.79 62
497712.75 5420049.14 338.88 0
497713.65 5420050 338.8 76
497713.67 5420048.55 338.8 93
497712.76 5420048.05 338.82 95
497714.02 5420048.91 338.8 63
497713.09 5420048.14 338.8 61
497712.74 5420050.21 338.78 72
497713.66 5420049.63 338.79 86
497713.08 5420048.91 338.8 52
497712.17 5420048.38 338.84 0
497713.66 5420049.28 338.78 83
497712.76 5420048.4 338.81 99
497714.01 5420049.68 338.79 50
497714.01 5420050.07 338.8 51
497717.45 5420051.86 338.8 58
497718.46 5420051.43 338.92 18
497716.86 5420052.52 338.8 55
497716.86 5420052.13 338.79 61
497718.45 5420051.81 338.79 64
497716.87 5420051.73 338.79 65
497717.45 5420051.48 338.8 57
497717.84 5420051.96 338.82 59
497717.44 5420052.25 338.78 62
497716.87 5420050.54 338.8 54
497716.87 5420051.33 338.79 79
497718.45 5420052.2 338.8 76
497717.85 5420051.55 338.8 57
497717.86 5420050.38 338.91 20
497717.46 5420050.7 338.8 75
497717.84 5420052.36 338.8 58
497717.46 5420050.33 338.8 88
497717.45 5420051.09 338.79 69
497718.46 5420051.06 338.92 3
497717.85 5420051.15 338.8 74
497716.87 5420050.94 338.79 65
497717.85 5420050.76 338.8 122
497716.53 5420045.29 339.5 64
497713.06 5420051.61 338.79 50
497713.64 5420051.81 338.79 88
497713.99 5420052.39 338.77 48
497713.05 5420052.01 338.8 48
497713.05 5420052.39 338.77 49
497714 5420051.61 338.78 68
497713.63 5420052.17 338.75 83
497712.74 5420050.57 338.79 68
497712.73 5420051.3 338.8 76
497713.65 5420050.72 338.78 75
497713.64 5420051.08 338.8 87
497712.14 5420051.46 338.76 60
497714 5420050.45 338.79 66
497712.72 5420052.02 338.8 76
497712.13 5420052.25 338.87 50
497713.99 5420052 338.77 74
497712.15 5420050.3 338.79 51
497713.64 5420051.45 338.79 80
497713.06 5420051.22 338.78 48
497712.73 5420050.93 338.78 62
497713.65 5420050.36 338.78 76
497712.14 5420051.07 338.78 67
497713.07 5420050.45 338.78 43
497714 5420051.23 338.77 59
497712.72 5420052.39 338.78 85
497712.72 5420051.65 338.79 79
497714 5420050.84 338.79 53
497713.63 5420052.53 338.77 80
497712.14 5420051.84 338.78 54
497713.06 5420050.84 338.79 47
497712.15 5420050.68 338.77 49
497713.02 5420056.29 338.8 48
497713.95 5420056.69 338.78 55
497712.67 5420056.79 338.82 66
497713.6 5420055.1 338.8 79
497712.11 5420055.36 338.81 48
497713.97 5420055.12 338.78 59
497713.01 5420056.68 338.8 62
497712.69 5420054.95 338.8 70
497712.1 5420055.74 338.78 57
497713.6 5420055.47 338.81 83
497712.68 5420056.42 338.8 74
497713.6 5420055.83 338.82 73
497712.09 5420056.93 338.78 50
497712.1 5420056.53 338.79 51
497713.59 5420056.57 338.8 81
497713.96 5420055.9 338.78 54
497713.59 5420056.19 338.8 80
497712.68 5420055.68 338.81 64
497713.96 5420056.3 338.8 52
497712.68 5420056.05 338.81 73
497712.69 5420055.32 338.81 57
497713.96 5420055.52 338.78 64
497713.02 5420055.91 338.82 35
497712.11 5420054.97 338.79 55
497713.03 5420055.11 338.8 45
497712.1 5420056.14 338.79 57
497713.02 5420055.51 338.78 42
497713.59 5420056.93 338.78 82
497702.36 5420056.19 338.9 18
497702.36 5420056.54 338.75 48
497702.03 5420056.65 338.76 69
497701.05 5420056.8 338.92 44
497701.06 5420056.44 338.94 37
497701.43 5420056.11 338.92 25
497702.04 5420055.93 338.92 37
497701.42 5420056.87 338.8 65
497702.37 5420055.79 338.93 40
497701.43 5420056.51 338.92 27
497702.03 5420056.3 338.91 24
497705.4 5420054.72 338.76 74
497706.97 5420054.75 339.75 33
497706.98 5420053.52 338.94 33
497705.4 5420054.36 338.94 26
497706.98 5420054.23 338.76 62
497707.34 5420054.74 339.68 78
497706.37 5420053.4 338.93 7
497706.37 5420053.8 338.94 25
497707.35 5420053.82 338.75 59
497706.98 5420053.87 338.77 108
497706.03 5420053.58 338.96 21
497706.99 5420053.16 338.96 32
497706.02 5420054.64 338.75 60
497707.34 5420054.36 339.74 8
497706.03 5420053.93 338.92 33
497706.03 5420054.29 338.85 11
497706.37 5420054.17 338.81 22
497705.41 5420053.96 338.94 24
497706.36 5420054.54 338.74 43
497707.35 5420053.45 338.93 27
497705.03 5420054.75 338.89 27
497704.06 5420054.75 338.93 42
497705.03 5420054.4 338.94 31
497704.39 5420054.57 338.94 24
497716.52 5420046.61 338.39 14
497718.84 5420052.46 338.8 49
497718.84 5420052.09 338.92 15
497704.36 5420057.03 339.65 58
497703.06 5420055.99 338.76 65
497704.05 5420055.46 338.76 90
497703.06 5420055.65 338.91 33
497704.39 5420054.96 338.9 21
497703.06 5420056.35 338.75 49
497704.37 5420056.25 339.67 39
497703.42 5420055.79 338.73 51
497705.01 5420055.98 339.67 69
497703.4 5420056.73 339.67 14
497703.43 5420055.05 338.93 31
497705.02 5420055.63 339.75 37
497704.05 5420055.81 338.74 71
497703.04 5420056.87 339.7 19
497704.36 5420056.65 339.65 52
497703.42 5420056.19 338.75 48
497704.39 5420055.32 338.78 51
497704.03 5420056.7 339.67 82
497703.42 5420055.44 338.91 32
497705.01 5420056.35 339.66 65
497704.38 5420055.71 338.75 30
497705 5420056.71 339.63 65
497704.03 5420056.34 339.74 23
497704.06 5420055.12 338.95 39
497705.03 5420055.11 338.77 60
497703.07 5420055.28 338.94 36
497714.03 5420047.76 338.79 58
497712.76 5420047.7 338.91 33
497714.03 5420047.37 338.8 88
497713.68 5420047.14 338.94 43
497712.17 5420048 338.9 0
497713.68 5420047.47 338.8 125
497713.09 5420047.75 338.81 85
497714.03 5420047 338.93 30
497713.68 5420047.83 338.8 99
497713.09 5420047.39 338.93 21
497711.24 5420048.48 338.9 38
497711.81 5420049.81 338.81 63
497711.24 5420048.85 338.77 17
497711.82 5420049.09 338.86 0
497711.23 5420050.01 338.77 59
497711.82 5420048.72 338.8 89
497711.82 5420048.35 338.77 0
497716.51 5420047.47 338.95 23
497716.51 5420047.84 338.89 22
497714.66 5420047.05 338.81 94
497714.99 5420047.45 338.8 70
497714.98 5420047.84 338.79 54
497714.65 5420047.76 338.79 70
497715.92 5420047.8 338.79 78
497714.99 5420046.69 338.8 95
497714.66 5420046.33 338.9 2
497715 5420046.32 338.92 20
497715.59 5420047.29 338.8 73
497715.92 5420047.02 338.81 72
497715.61 5420046.19 338.93 32
497714.65 5420047.4 338.82 81
497714.66 5420046.7 338.94 33
497715.59 5420048.03 338.79 77
497714.99 5420047.07 338.82 68
497715.6 5420046.91 338.81 63
497715.59 5420047.67 338.81 78
497715.6 5420046.55 338.81 77
497715.92 5420047.42 338.82 73
497715.93 5420046.66 338.91 20
497721.33 5420065.05 338.8 55
497721.34 5420064.27 338.8 61
497722.3 5420065.45 338.81 49
497722.73 5420065.74 338.82 62
497721.33 5420065.83 338.83 72
497721.75 5420064.16 338.79 61
497721.74 5420065.34 338.8 52
497722.31 5420063.9 338.8 39
497722.3 5420064.67 338.8 57
497722.3 5420065.06 338.82 50
497722.74 5420064.16 338.81 55
497722.29 5420065.83 338.82 53
497722.73 5420065.35 338.79 55
497721.74 5420064.94 338.81 57
497722.31 5420064.3 338.79 46
497721.74 5420064.56 338.8 44
497721.74 5420065.74 338.81 54
497721.33 5420065.43 338.8 60
497721.34 5420064.66 338.79 54
497721.34 5420063.88 338.81 51
497722.74 5420064.55 338.82 59
497722.74 5420064.95 338.81 57
497721.29 5420070.11 338.79 64
497721.71 5420068.89 338.77 47
497721.3 5420068.93 338.76 39
497721.3 5420069.33 338.75 33
497721.3 5420068.55 338.77 43
497722.26 5420069.74 338.91 14
497721.7 5420070.08 338.8 63
497721.71 5420069.67 338.75 34
497721.71 5420069.28 338.77 46
497721.29 5420069.73 338.76 41
497723.3 5420065.49 338.81 65
497724.71 5420064.66 338.81 55
497723.74 5420065.27 338.79 59
497724.27 5420065.1 338.77 73
497724.71 5420063.86 338.82 69
497723.75 5420064.46 338.8 58
497723.74 5420065.68 338.8 62
497723.31 5420064.33 338.82 54
497724.71 5420064.26 338.82 63
497723.3 5420065.11 338.81 55
497724.7 5420065.85 338.94 16
497724.7 5420065.43 338.8 53
497725.26 5420065.28 338.92 20
497724.27 5420065.91 338.92 31
497724.28 5420063.94 338.81 63
497724.27 5420065.5 338.8 67
497724.28 5420064.73 338.83 61
497723.75 5420064.05 338.81 53
497724.28 5420064.34 338.83 68
497723.3 5420065.88 338.81 69
497723.74 5420064.86 338.82 63
497723.31 5420064.72 338.8 58
497723.31 5420063.94 338.81 58
497724.7 5420065.03 338.78 67
497723.73 5420066.1 338.92 24
497725.25 5420066.05 338.72 42
497724.7 5420066.23 338.83 61
497723.29 5420066.67 338.89 1
497725.24 5420066.5 338.98 23
497723.29 5420066.28 338.88 31
497721.36 5420062.32 338.82 58
497722.74 5420063.76 338.79 63
497721.35 5420063.49 338.82 60
497721.75 5420062.99 338.82 57
497722.75 5420062.97 338.81 53
497721.35 5420062.71 338.8 71
497722.76 5420062.17 338.8 57
497721.36 5420061.94 338.82 58
497722.75 5420062.57 338.8 53
497722.32 5420063.14 338.8 53
497721.75 5420063.38 338.81 58
497721.75 5420063.77 338.81 65
497722.33 5420061.98 338.79 49
497721.76 5420062.21 338.82 55
497722.76 5420061.79 338.82 52
497722.32 5420062.75 338.8 43
497722.31 5420063.52 338.8 54
497722.75 5420063.36 338.8 55
497722.32 5420062.37 338.83 58
497721.76 5420062.59 338.81 59
497722.33 5420061.6 338.8 52
497721.35 5420063.11 338.81 64
497721.76 5420061.82 338.81 59
497721.36 5420061.55 338.82 60
497723.32 5420063.18 338.8 69
497724.29 5420062.38 338.83 74
497723.76 5420062.84 338.81 53
497725.27 5420063.67 338.82 67
497724.72 5420063.09 338.81 71
497723.33 5420062.41 338.79 54
497723.33 5420061.63 338.8 53
497723.32 5420062.79 338.81 57
497724.71 5420063.48 338.82 80
497723.75 5420063.25 338.8 55
497724.28 5420063.55 338.81 64
497723.31 5420063.57 338.81 60
497723.75 5420063.64 338.79 67
497725.27 5420063.28 338.92 27
497724.72 5420062.69 338.82 70
497723.76 5420062.42 338.79 52
497723.76 5420062.02 338.81 62
497724.3 5420061.99 338.83 69
497724.3 5420061.61 338.84 37
497723.33 5420062.03 338.82 57
497724.72 5420062.32 338.89 13
497723.76 5420061.62 338.82 64
497724.29 5420062.77 338.8 66
497724.29 5420063.16 338.78 60
497722.72 5420066.94 338.86 2
497722.73 5420066.14 338.81 63
497721.73 5420066.13 338.81 59
497721.32 5420066.6 338.8 64
497722.29 5420066.22 338.8 47
497722.29 5420066.61 338.79 48
497721.32 5420066.22 338.8 67
497721.31 5420067.4 338.89 32
497721.73 5420066.91 338.8 63
497722.28 5420067.02 338.9 20
497721.31 5420068.16 338.79 66
497721.31 5420067.78 338.88 7
497721.72 5420067.33 338.92 25
497722.73 5420066.55 338.86 42
497721.32 5420066.99 338.79 79
497721.73 5420066.52 338.79 53
497721.38 5420060 338.81 53
497722.33 5420060.83 338.83 53
497722.77 5420060.6 338.82 59
497721.77 5420059.87 338.79 52
497721.78 5420059.48 338.81 53
497721.76 5420061.42 338.81 51
497721.37 5420060.39 338.82 61
497722.77 5420060.21 338.84 59
497721.37 5420061.16 338.82 62
497721.37 5420060.78 338.82 63
497722.76 5420061.39 338.81 59
497721.77 5420060.25 338.82 61
497721.38 5420059.62 338.79 63
497722.35 5420059.68 338.83 51
497721.77 5420060.65 338.84 59
497722.77 5420059.81 338.83 66
497721.77 5420061.04 338.83 64
497722.34 5420060.06 338.83 53
497722.34 5420060.45 338.82 49
497722.77 5420059.41 338.81 61
497722.76 5420060.99 338.84 62
497722.33 5420061.21 338.81 52
497723.77 5420061.22 338.83 69
497723.34 5420060.87 338.8 64
497723.33 5420061.26 338.8 49
497723.77 5420060.81 338.84 63
497723.35 5420059.36 338.97 41
