1517
497448.35 5420264 329.41 121
497449.67 5420260.35 323.1 138
497449.47 5420263.86 328.24 86
497451.15 5420260.19 322.35 190
497448.84 5420261.03 326.96 162
497449 5420258.33 321.62 87
497448.49 5420261.49 326.41 61
497451.93 5420260.7 322.4 136
497451.41 5420248.94 319.55 94
497452.19 5420262.37 322.39 94
497448.91 5420259.77 326.22 135
497447.83 5420258.82 325.25 105
497450.7 5420261.89 322.34 148
497451.78 5420249 319.56 57
497449.84 5420263.01 327.5 72
497449.98 5420260.7 322.21 79
497447.89 5420257.82 320.12 80
497450.03 5420259.87 322.66 88
497449.83 5420263.27 327.84 120
497452.25 5420261.3 322.36 124
497448.43 5420262.56 327.93 156
497449.03 5420257.89 321.9 90
497451.79 5420263.3 322.36 106
497452.15 5420263.09 322.38 130
497447.54 5420263.83 329.9 81
497448.41 5420263.02 329.02 2
497451.39 5420255.7 329.06 59
497447.39 5420261.58 327.68 182
497449.94 5420261.44 322.17 141
497452.13 5420263.46 322.37 118
497451.29 5420257.71 322.08 136
497448.67 5420263.92 328.17 153
497450.13 5420258.17 322.17 55
497451.77 5420263.67 322.37 94
497451.2 5420259.14 322.23 179
497450.82 5420259.69 323.76 135
497449.7 5420259.86 322.09 129
497449.62 5420261.28 322.36 128
497448.47 5420261.89 329.25 99
497451.23 5420258.77 322.22 135
497446.83 5420257.64 320.13 102
497447.93 5420257.09 320.02 42
497445.48 5420263.18 320.47 0
497449.68 5420260.17 322.29 147
497448.7 5420263.46 328.58 176
497449.72 5420259.39 322.47 157
497449.74 5420258.98 322.61 178
497448.89 5420260.39 322.14 132
497448.63 5420259.06 321.27 136
497449.51 5420263.11 328.34 105
497452.1 5420263.82 328.11 42
497452.21 5420262.02 322.36 94
497451.85 5420262.19 322.38 106
497449.89 5420262.13 328.16 120
497449.79 5420258.22 322.68 123
497447.48 5420260.28 320.97 27
497449.91 5420262.03 322.7 122
497447.66 5420261.76 328.11 107
497448.72 5420263.09 328.68 128
497447.42 5420261.08 328.24 136
497451.02 5420262.36 322.38 137
497446.46 5420259.09 320.24 99
497447.63 5420257.52 320.1 102
497448.81 5420261.45 328.14 132
497449.58 5420261.92 325.75 118
497447.37 5420261.87 329.43 44
497449.84 5420257.3 321.84 5
497447.76 5420259.95 326.63 125
497450.8 5420259.99 324.07 58
497446.44 5420259.48 320.24 91
497452.26 5420254.49 328.29 77
497449.61 5420261.44 323.19 134
497451.95 5420260.34 322.4 147
497447.32 5420262.8 330.01 138
497452.16 5420256.24 330.29 2
497446.34 5420261.39 320.41 0
497448.97 5420258.89 322.28 98
497450.08 5420258.98 323.37 15
497452.31 5420260.2 322.4 156
497449.54 5420262.54 329.18 118
497448.52 5420261.04 326.79 152
497452.03 5420258.87 322.33 116
497448.71 5420257.63 321 35
497447.78 5420259.58 326.65 64
497451.04 5420255.49 329.02 54
497452.23 5420261.65 322.36 108
497449.04 5420257.72 321.09 115
497445.66 5420259.87 320.29 61
497451 5420262.72 322.38 146
497450.96 5420257.14 321.97 0
497448.74 5420262.71 328.79 137
497446.23 5420263.15 325.66 4
497447.28 5420263.61 329.62 138
497446.71 5420259.8 320.27 16
497451.43 5420248.56 319.55 106
497450.94 5420263.79 322.39 55
497452.28 5420253.99 332.06 10
497451.89 5420247.12 319.47 110
497448.56 5420260.32 322.16 93
497448.62 5420259.28 324.99 57
497451.26 5420258.09 323.58 18
497447.58 5420263 330.39 99
497449.08 5420256.99 321.05 40
497451.99 5420259.6 322.38 168
497451.87 5420247.51 319.47 87
497449.55 5420262.31 328.61 134
497449.87 5420262.39 328.57 17
497449.82 5420257.66 321.85 52
497447.91 5420257.45 320.1 95
497473.39 5420286.44 334.01 82
497479.83 5420288.11 334.02 82
497483.58 5420298.76 328.15 143
497481.29 5420294.16 333.98 68
497485.19 5420296.31 328.91 37
497487.41 5420286.08 334.06 68
497473.7 5420300.18 334.28 2
497479.72 5420296.63 334.03 82
497485.25 5420295.27 328.21 98
497475.78 5420286.64 334 89
497479.35 5420297.48 334.06 103
497479.45 5420301.63 334.07 93
497474.65 5420288.48 333.96 69
497475.52 5420297.64 333.96 70
497474.75 5420286.58 333.98 62
497475.58 5420296.41 334.06 2
497476.97 5420290.07 334.03 105
497486.71 5420293.63 328.23 91
497475.82 5420285.99 333.99 94
497484.2 5420285.5 334.04 66
497480.05 5420290.54 333.98 72
497473.13 5420285.08 334.04 87
497473.52 5420303.52 333.96 66
497481.27 5420294.46 333.98 78
497478.06 5420301.32 334.03 68
497478.41 5420288.59 334.01 86
497476.53 5420304.05 334.05 73
497480.88 5420295.49 334.03 105
497477.03 5420288.79 334.04 96
497482.18 5420304.22 328.05 113
497477.75 5420301.56 334.03 83
497473.46 5420285.16 334.03 83
497478.33 5420290.19 334.02 92
497475.62 5420289.85 334.02 105
497476.11 5420286.83 334 59
497475.16 5420298.56 333.93 94
497480.81 5420303.08 333.86 2
497480.81 5420296.71 334.05 88
497484.35 5420291.24 327.07 149
497484.42 5420288.74 334.34 45
497476.02 5420288.41 334.01 69
497476.56 5420297.87 334.03 87
497485.45 5420291.34 327.5 11
497488.51 5420287.12 333.85 2
497489.98 5420294.63 328.28 13
497486.05 5420285.31 334.04 42
497485.89 5420288.48 334.03 66
497482.52 5420290.28 333.99 67
497477.88 5420304.75 334.06 70
497478.54 5420292.65 334 67
497477.08 5420287.82 334.04 93
497479.36 5420297.19 334.05 86
497477.3 5420290.02 334.04 82
497478.52 5420292.96 334 67
497481.31 5420293.86 333.99 70
497481.39 5420292.32 334 57
497487.01 5420294.76 328.23 76
497475.8 5420286.32 333.97 115
497479.75 5420289.73 333.98 100
497475.89 5420284.7 333.96 105
497483.38 5420302.75 328.09 114
497481.11 5420290.81 334.02 83
497484.17 5420286.16 334.04 80
497478.25 5420291.77 334.02 86
497483.92 5420292.13 327.08 161
497475.37 5420300.28 334.01 59
497474.58 5420289.73 333.97 76
497483.9 5420292.46 328.11 99
497489.87 5420289.97 328.15 166
497484.6 5420285.35 334.03 65
497485.09 5420298.41 328.16 166
497482.26 5420302.73 328.08 99
497474.9 5420303.57 334.03 93
497478.09 5420294.88 334.06 38
497474.38 5420293.42 334.02 76
497486.78 5420292.03 328.23 96
497482.88 5420290.25 334.01 78
497476.44 5420300.27 334.02 87
497473.76 5420304.61 333.98 75
497474.34 5420287.84 333.97 83
497477.68 5420302.72 334.05 75
497475.89 5420290.91 334.01 73
497483.15 5420285.2 333.99 59
497483.33 5420303.67 328.95 198
497475.24 5420302.61 334.04 64
497487.39 5420286.41 334.05 56
497479.8 5420295.14 334 82
497477.18 5420285.88 334.03 93
497478.39 5420295.37 334.08 7
497476.42 5420300.58 334.01 80
497474.48 5420291.59 333.99 71
497485.72 5420292.73 328.28 98
497482.41 5420292.46 334.08 36
497476.75 5420300.01 334.01 72
497473.85 5420302.91 333.95 66
497476.64 5420296.35 333.99 81
497473.37 5420286.75 334 81
497473.15 5420284.74 334.05 116
497482.8 5420291.64 334.54 5
497485.62 5420286.79 334.06 77
497475.39 5420299.99 334.02 69
497490.07 5420292.54 329.99 54
497477.64 5420303.6 334.07 99
497479.62 5420292.25 333.99 66
497481.4 5420292.01 334.02 69
497478.42 5420294.78 334.02 79
497476.88 5420291.66 334.03 90
497483.35 5420303.43 328.81 212
497477.31 5420289.72 334.03 72
497479.37 5420303.07 334.09 91
497477.47 5420286.88 334.06 83
497482.38 5420292.96 334.51 4
497491.76 5420289.09 329.48 87
497482.7 5420286.74 334 67
497477.88 5420298.87 334.02 86
497486.77 5420292.35 328.24 94
497484.19 5420285.82 334.06 79
497482.28 5420295.83 328.25 29
497475.01 5420301.53 334.01 87
497480.97 5420300.11 334.05 57
497480.54 5420302.13 334.07 96
497474.27 5420289.12 333.99 84
497481.22 5420295.37 334.01 66
497474.48 5420285.23 334.03 96
497485.28 5420294.64 328.23 88
497486.04 5420285.62 334.08 64
497475.57 5420290.8 334.01 100
497488.61 5420293.4 329.78 116
497480.47 5420303.5 334.34 7
497478.17 5420293.35 334.01 82
497479.97 5420292.09 333.99 84
497478.94 5420285.11 334.04 75
497478.93 5420285.42 334.05 87
497473.92 5420301.76 333.97 84
497474.16 5420291.34 333.97 78
497480.45 5420303.87 334.11 5
497479.29 5420304.5 334.08 77
497473.34 5420287.4 333.99 80
497473.71 5420299.87 334.28 2
497475.07 5420300.35 333.99 111
497476.58 5420297.57 334.01 77
497477.61 5420304.18 334.07 92
497489.8 5420291.1 329.78 181
497482.96 5420288.69 333.98 80
497474.7 5420287.54 333.95 51
497481.27 5420287.63 333.98 80
497482.74 5420285.77 334 64
497478.82 5420287.34 334.02 75
497490.33 5420287.71 328.16 102
497472.98 5420287.99 334.02 87
497479.65 5420291.62 334 79
497481.16 5420289.86 334.01 78
497488.99 5420285.23 333.83 2
497482.26 5420296.15 328.25 64
497475.29 5420296.12 333.97 86
497475.67 5420288.89 334 109
497485.94 5420287.53 334.07 54
497474.43 5420286.2 334.03 95
497474.34 5420294.03 334.02 68
497473.45 5420304.97 333.96 83
497473.91 5420296.02 334.01 80
497478.55 5420292.34 333.99 80
497481.16 5420296.56 334.06 74
497476.06 5420287.78 333.99 65
497475.16 5420304.04 334.01 67
497488.37 5420291.04 328.24 84
497488.64 5420292.82 329.63 87
497490.11 5420285.02 328.13 3
497481.05 5420292.06 334.03 114
497480.55 5420301.83 334.07 90
497479.94 5420285.87 334.01 87
497485.36 5420293.01 328.32 154
497483.71 5420295.98 330.07 92
497482.61 5420288.36 334.02 65
497481.78 5420285.11 333.96 80
497483.91 5420292.44 327.09 189
497479.93 5420286.19 334 87
497480 5420291.48 333.99 93
497484.01 5420297.46 328.14 112
497474.19 5420296.75 334 60
497488.41 5420290.09 328.17 108
497475.31 5420301.44 334.05 76
497487.06 5420293.83 328.23 76
497479.57 5420293.18 334.02 77
497481.11 5420297.43 334.11 97
497476.47 5420305.19 334.04 70
497473.57 5420302.65 333.94 66
497473.58 5420302.35 333.98 74
497479.58 5420299.29 334.08 83
497476.72 5420300.6 334.02 65
497482.58 5420289 334.01 82
497478.91 5420285.75 334.04 83
497490.35 5420287.39 328.17 91
497473.65 5420301.16 333.99 91
497475.87 5420285.02 333.97 103
497486.94 5420288.02 334.1 78
497482.65 5420295.41 328.28 76
497488.69 5420291.76 329.99 2
497478.96 5420284.79 334.03 82
497473.74 5420299.36 334.03 65
497478.77 5420288.29 334.01 77
497484.28 5420292.51 327.08 175
497484.2 5420293.71 328.28 76
497475.55 5420297.03 333.97 70
497474.24 5420289.76 334 93
497474.84 5420284.99 334.02 108
497482.54 5420296.59 334.27 8
497474.23 5420296.16 334 69
497482.33 5420300.59 333.82 1
497479.51 5420300.47 334.07 76
497475.4 5420299.7 334.01 79
497482.05 5420299.6 333.87 2
497485.26 5420294.95 328.22 90
497479.59 5420299 334.06 89
497484.11 5420287.45 334.05 83
497488.26 5420292.97 329.28 4
497488.76 5420290.65 328.47 141
497479.26 5420305.07 334.05 77
497480.69 5420299.14 334.08 103
497480.1 5420289.61 333.99 81
497484.31 5420291.88 327.04 163
497475.13 5420304.61 334.03 66
497475.5 5420297.93 333.96 77
497485.15 5420297.17 328.14 101
497477.23 5420284.91 334.02 84
497477.54 5420285.61 334.03 70
497477.11 5420293.43 334 64
497474.51 5420290.98 333.97 69
497481.84 5420304.47 328.07 112
497486.75 5420292.67 328.24 94
497478.23 5420292.09 334.02 93
497489.82 5420290.89 329.43 43
497477.56 5420305.05 334.04 80
497481.31 5420286.97 333.99 107
497491.33 5420290.88 328.39 26
497472.94 5420288.62 334.02 92
497483.77 5420294.97 328.26 85
497489.83 5420290.51 329.61 1
497481.83 5420304.76 328.07 107
497482.23 5420303.33 328.06 128
497476.82 5420292.92 334.04 89
497477.26 5420290.65 334.02 81
497480.86 5420295.8 334.05 74
497482.55 5420296.28 334.31 5
497478.1 5420300.74 334.01 78
497476.58 5420303.19 334.05 71
497491.27 5420292.17 328.38 28
497477.92 5420303.9 334.06 80
497484.19 5420294.02 328.27 73
497475.47 5420292.68 334.06 103
497479.88 5420293.62 334.03 124
497481.05 5420298.64 334.06 65
497476.3 5420302.93 334.06 89
497479.76 5420289.4 334 95
497489.84 5420290.61 328.19 154
497478.15 5420293.65 334.02 70
497478.44 5420287.94 334.05 88
497477.2 5420285.55 334.03 92
497475.45 5420298.83 333.97 73
497473.08 5420292.07 333.99 77
497473.82 5420297.84 334.02 76
497488.97 5420285.56 333.83 1
497485.53 5420288.73 334.03 110
497475.65 5420295.23 333.95 68
497486.95 5420287.69 334.1 89
497488.81 5420289.79 328.15 109
497474.21 5420290.4 333.97 85
497482.44 5420291.85 334.02 76
497475.05 5420300.65 333.98 96
497477.9 5420298.57 334.03 80
497481.19 5420295.94 334.13 7
497479.7 5420290.67 334.01 73
497489.79 5420291.42 329.78 152
497486.74 5420292.99 328.27 86
497487.05 5420285.75 334.09 89
497480.58 5420301.22 334.09 89
497473.98 5420300.59 333.97 71
497474.32 5420288.17 333.97 84
497476.49 5420304.9 334.05 67
497479.28 5420304.78 334.07 77
497483.91 5420299.28 328.13 119
497478.5 5420286.98 334.03 87
497481.19 5420289.22 334.01 77
497477.25 5420290.96 334.03 75
497484.11 5420295.5 328.54 144
497475.15 5420298.85 333.97 113
497480.5 5420302.92 334.33 3
497482.36 5420300 333.82 2
497482.64 5420295.44 329.2 62
497483.86 5420293.1 329.18 129
497490.23 5420289.56 329.47 67
497480.29 5420286.14 334.02 84
497477.57 5420284.97 334.02 71
497474 5420300.31 333.97 70
497485.65 5420294 328.23 55
497490.18 5420290.44 329.68 25
497489.01 5420284.91 333.85 3
497472.93 5420288.95 334.02 87
497485.33 5420293.37 329.22 106
497474.11 5420292.3 333.97 80
497473.2 5420289.9 333.98 70
497484.23 5420293.13 329.17 102
497481.49 5420290.45 334.02 65
497474.21 5420296.45 334 74
497479.86 5420287.48 334.01 92
497485.49 5420297.12 328.12 80
497483.37 5420303.05 328.11 152
497488.22 5420293.84 329.6 57
497479.29 5420298.7 334.07 83
497474.49 5420284.91 334.03 88
497475.12 5420299.45 333.96 92
497479.92 5420293.01 334 80
497479.43 5420301.92 334.07 91
497480.4 5420304.81 333.88 7
497482.71 5420286.42 334 73
497478.48 5420287.3 334.03 102
497485.6 5420294.94 328.2 64
497477 5420289.43 334.06 88
497485.73 5420292.35 328.5 115
497474.36 5420287.51 333.99 82
497478.26 5420291.45 334.02 102
497483.75 5420302.09 329.64 39
497479.47 5420301.35 334.06 70
497481.23 5420288.58 334 92
497477.05 5420288.47 334.04 91
497488.38 5420290.65 328.5 204
497480.67 5420299.44 334.07 99
497480.66 5420299.74 334.06 101
497477.06 5420288.16 334.02 101
497486.89 5420288.97 334.13 55
497479.49 5420294.74 334.03 95
497491.68 5420291 328.39 26
497483.46 5420301.24 328.11 172
497473.73 5420299.59 334.24 2
497485.34 5420293.35 328.27 85
497478.07 5420295.13 334.26 1
497476.55 5420298.18 334 79
497482.19 5420303.92 328.06 128
497480.92 5420300.99 334.07 65
497483.88 5420292.74 329.32 32
497485.7 5420285.17 334.05 68
497483.65 5420297.51 328.16 125
497485.7 5420293.02 328.36 50
497480.76 5420303.95 333.83 2
497474.26 5420295.55 333.99 54
497480.75 5420297.92 334.1 108
497487.43 5420285.77 334.07 61
497473.55 5420302.94 333.96 67
497490.03 5420293.68 328.33 15
497474.46 5420285.55 334.04 87
497473.06 5420292.38 333.99 75
497478.08 5420301.02 334.04 72
497478.03 5420301.89 334.04 71
497473.9 5420302.05 333.96 75
497484.04 5420296.83 328.18 104
497473.62 5420301.76 333.96 71
497473.01 5420293.32 333.94 71
497475.55 5420291.12 334.02 97
497480.88 5420301.79 334.28 1
497475.26 5420302.32 334.02 72
497477.49 5420286.56 334.06 83
497484.5 5420287.26 334.05 63
497483.79 5420294.65 328.26 89
497489.89 5420289.63 328.18 165
497481.21 5420295.66 334.03 73
497476.07 5420287.46 333.99 67
497476.95 5420296.46 334 58
497476.71 5420295.1 334.02 61
497473.63 5420301.46 333.98 78
497482.55 5420289.65 334 79
497474.37 5420287.19 333.98 82
497485.56 5420295.65 328.9 26
497475.1 5420305.18 334.03 71
497479.1 5420302.27 334.09 87
497478.57 5420292.03 334.01 77
497474.49 5420291.27 334 74
497480.43 5420304.24 333.88 7
497485.61 5420287.11 334.05 75
497476.59 5420297.26 334.01 81
497483.76 5420295.21 328.5 126
497477.7 5420302.43 334.05 90
497480.85 5420296.03 334.27 2
497488.71 5420291.68 328.21 69
497475.6 5420290.17 334.02 102
497484.63 5420284.71 334.05 63
497473.05 5420292.7 333.98 79
497491.85 5420287.43 329.66 166
497489.69 5420293.78 328.32 31
497485.23 5420295.59 328.21 98
497483.6 5420298.46 328.13 59
497476.96 5420296.15 334.03 75
497475.23 5420302.89 334.03 68
497479.47 5420295.05 334.01 95
497475.95 5420289.66 334.02 81
497479.36 5420303.36 334.06 79
497475.1 5420299.75 333.98 77
497473.87 5420302.63 333.92 81
497487.36 5420287.03 334.07 58
497488.33 5420291.69 328.25 50
497482.79 5420284.8 333.97 68
497487.03 5420294.44 328.22 69
497473.66 5420300.84 334.06 21
497479.84 5420287.8 334.03 81
497477.16 5420292.51 334.02 71
497482.62 5420295.64 329.56 16
497476.29 5420303.23 334.05 85
497483.85 5420300.49 328.11 139
497482.36 5420293.27 334.52 4
497474.61 5420289.11 333.98 73
497474.09 5420292.6 333.98 84
497474.06 5420293.23 333.99 86
497473.76 5420299.06 334.01 73
497478.22 5420292.41 334 87
497492.97 5420286.76 329.94 5
497476.38 5420301.47 334.03 76
497474.04 5420293.55 333.98 70
497484.09 5420287.78 334.01 86
497488.79 5420290.1 328.21 93
497475.82 5420292.15 334.02 65
497482.4 5420299.1 333.86 3
497475.73 5420293.7 333.98 68
497482.24 5420303.03 328.06 117
497478.53 5420286.32 334.05 86
497482.24 5420296.16 331.23 48
497473.68 5420300.48 334.26 1
497490 5420294.31 328.3 10
497483.61 5420298.13 328.17 0
497476.71 5420300.9 334.01 68
497489.65 5420294.43 328.3 27
497481.13 5420297.15 334.08 70
497475.37 5420294.48 334.26 3
497483.8 5420301.39 328.11 157
497483.04 5420287.09 334.04 69
497482.49 5420297.5 334.21 3
497476.78 5420299.43 334 66
497473.82 5420303.48 333.95 73
497479.64 5420298.12 334.06 79
497488.29 5420292.67 328.2 75
497474.11 5420298.22 334.03 24
497476.9 5420291.35 334.03 96
497479.98 5420285.21 334 81
497485.84 5420289.33 334.35 37
497479.74 5420296.34 334.01 76
497491.25 5420292.49 328.35 26
497491.83 5420287.82 329.44 83
497479.13 5420301.68 334.08 89
497483.49 5420300.62 328.12 164
497475.21 5420303.18 334.03 72
497481.94 5420301.71 333.81 2
497474.36 5420293.73 334.01 107
497491.5 5420287.29 328.36 170
497481.36 5420292.93 334.01 77
497481.21 5420288.9 334.01 102
497482.58 5420296.33 330.3 129
497481.42 5420291.7 334 66
497481.06 5420298.34 334.07 61
497490.4 5420286.42 328.19 90
497477.96 5420297.35 334.04 76
497482.45 5420298.21 333.87 3
497475.99 5420289.04 334 75
497476.98 5420295.87 333.98 54
497489.62 5420295.06 328.29 31
497479.88 5420287.15 334 96
497473.81 5420303.77 333.95 57
497487.21 5420289.94 333.82 1
497484.08 5420296.11 328.55 94
497475.52 5420291.74 334.03 102
497488.88 5420288.51 328.14 109
497489.74 5420292.39 329.77 104
497481.08 5420291.44 334.03 87
497478.6 5420291.41 333.99 85
497479.5 5420300.76 334.06 78
497488.56 5420286.14 333.86 3
497473.96 5420295.08 334.06 110
497473.36 5420287.07 334.01 109
497481.1 5420297.74 334.09 89
497487.07 5420293.51 328.22 70
497485.78 5420291.51 328.14 156
497486.92 5420288.33 334.11 109
497487.46 5420285.13 334.06 53
497482.17 5420297.1 334.1 72
497487.14 5420292.26 328.22 60
497473.24 5420289.28 334 72
497491.89 5420286.87 328.29 16
497476.52 5420304.34 334.05 68
497481.87 5420303.86 328.09 60
497488.49 5420287.43 333.84 3
497478.81 5420287.66 334.02 75
497479.93 5420292.71 334 92
497480.51 5420302.64 334.27 3
497482.93 5420289.32 334 78
497483.71 5420296.13 328.55 61
497488.83 5420289.47 328.16 143
497479.75 5420296.04 334.01 88
497478.34 5420296.29 334.04 61
497482.81 5420291.35 334.48 3
497473.32 5420287.71 334.01 76
497477.01 5420295.26 333.98 77
497474.01 5420294.17 334 78
497483.16 5420284.88 333.99 67
497477.15 5420286.53 334.05 81
497476.98 5420289.75 334.05 100
497485.59 5420287.44 334.06 68
497475.53 5420297.34 333.96 67
497488.27 5420292.98 328.23 85
497485.62 5420294.63 328.21 61
497476.04 5420288.09 334.01 71
497488.55 5420294.79 328.27 57
497482.42 5420298.82 333.83 2
497481.06 5420291.76 334.02 96
497476.74 5420294.47 334.08 19
497480.94 5420294.26 334 88
497482.34 5420300.3 333.82 2
497482.39 5420299.42 333.82 1
497487.31 5420287.93 334.26 3
497477.78 5420300.97 334.01 94
497472.93 5420294.83 333.96 79
497478.89 5420286.07 334.03 74
497476.88 5420297.66 334 58
497478.7 5420289.55 334 75
497483.35 5420303.35 328.13 168
497480.75 5420304.23 333.83 1
497484.14 5420286.81 334.03 93
497481.39 5420285.36 333.97 106
497475.65 5420289.2 334.03 128
497476.21 5420304.68 334.06 77
497473.06 5420286.37 334.06 87
497474.86 5420304.45 334.02 90
497479.91 5420286.51 334.02 91
497479.79 5420295.43 334.06 54
497482.52 5420296.88 334.3 4
497486.69 5420293.95 328.25 89
497478.1 5420294.59 334.02 85
497474.82 5420285.3 334 67
497488.73 5420291.36 328.21 69
497487.16 5420291.94 328.24 67
497476.67 5420295.73 333.99 92
497478.86 5420286.7 334.03 70
497475.87 5420291.22 334.03 71
497485.31 5420293.99 328.24 89
497478.3 5420290.83 334.02 100
497478.04 5420295.84 333.98 78
497477.79 5420300.67 334.04 83
497473.51 5420303.81 333.95 53
497481.67 5420287.01 333.98 86
497488.48 5420287.76 333.83 2
497485.37 5420292.68 328.36 209
497483.13 5420285.52 333.99 69
497480.91 5420294.89 334 86
497480.02 5420291.17 333.97 71
497483.73 5420295.76 328.76 3
497475.31 5420295.8 334 45
497484.53 5420286.62 334.03 61
497478.18 5420299.27 334.05 77
497486.02 5420285.94 334.05 44
497477.91 5420304.18 334.08 63
497478.35 5420296.01 333.99 80
497473.54 5420303.23 333.96 70
497485.29 5420294.31 328.23 87
497479.56 5420299.59 334.07 95
497481.08 5420298.04 334.09 62
497481.57 5420288.89 333.99 62
497481.18 5420296.16 334.35 2
497473.11 5420291.46 333.98 74
497480.77 5420297.61 334.1 94
497473.78 5420304.33 333.95 85
497477.84 5420299.78 334.01 88
497480.63 5420300.34 334.06 112
497481.44 5420291.39 334.01 64
497477.95 5420303.32 334.06 73
497474.96 5420302.41 334.04 95
497485.41 5420291.97 328.58 194
497473.9 5420296.32 334.04 114
497474.79 5420285.95 334 63
497484.06 5420296.52 328.2 75
497477.37 5420288.76 334.05 68
497482.58 5420296.25 331.52 51
497479.02 5420304.01 334.12 90
497479.06 5420303.14 334.09 81
497482.53 5420289.96 333.99 80
497475.4 5420293.94 333.99 97
497487.08 5420285.1 334.09 93
497480.08 5420289.91 334.01 89
497477.52 5420285.92 334.04 79
497473.43 5420305.26 333.96 80
497481.34 5420293.24 333.98 62
497483.52 5420300.01 328.12 165
497479.21 5420300.2 334.06 80
497477.05 5420294.57 334.26 1
497483.94 5420291.8 327.07 121
497487.44 5420285.45 334.06 55
497488.35 5420291.37 328.22 93
497475.78 5420292.75 334.04 80
497485.11 5420298.11 328.14 102
497477.45 5420287.2 334.03 73
497484.07 5420288.1 334.04 92
497479.66 5420297.81 334.06 100
497482.98 5420288.36 334.03 74
497485.12 5420297.8 328.12 191
497475.85 5420285.34 333.98 108
497483.93 5420298.98 328.11 103
497479.05 5420303.42 334.11 83
497483.72 5420302.69 328.66 101
497475.33 5420295.4 334.27 2
497491.46 5420288.06 329.09 172
497485.2 5420296 328.91 38
497478.79 5420287.96 334.02 75
497479.39 5420302.77 334.1 87
497487.24 5420289.26 334.02 2
497473.22 5420289.59 334 89
497485.17 5420296.64 328.82 27
497481.37 5420285.67 334 115
497480.89 5420295.19 334.01 93
497479.52 5420294.11 334.02 77
497488.57 5420285.8 333.88 2
497485.54 5420295.96 328.89 26
497491.52 5420286.98 328.27 181
497477.28 5420290.33 334.04 77
497482.91 5420289.63 333.99 60
497483.66 5420297.2 328.17 129
497485.14 5420297.48 328.16 139
497477.63 5420303.89 334.07 91
497483.4 5420302.45 328.1 151
497473.1 5420291.77 333.98 75
497477.09 5420293.74 333.99 56
497477.5 5420286.24 334.05 74
497476.85 5420292.29 334.03 105
497474.03 5420293.85 334 79
497475.08 5420300.06 333.97 100
497474.72 5420287.22 333.96 72
497482.21 5420303.62 328.06 107
497488.43 5420289.77 328.19 101
497474.05 5420299.34 334.22 2
497482.5 5420290.6 334 82
497488.89 5420288.18 328.16 0
497483.06 5420286.78 334.03 61
497472.99 5420287.67 333.99 102
497479.41 5420296.29 334 86
497479.89 5420286.83 334.01 89
497475.77 5420286.96 333.97 98
497481 5420299.53 334.05 76
497478.21 5420298.68 334.02 74
497474.12 5420291.98 333.97 79
497474.22 5420290.08 333.98 76
497473.18 5420290.22 333.99 67
497485.56 5420288.08 334.06 95
497475.44 5420293.31 334 87
497473.77 5420298.76 334.01 73
497478.45 5420294.18 334 75
497474.29 5420294.94 334.01 57
497475.58 5420290.47 334.04 94
497488.78 5420290.42 328.16 65
497476.55 5420303.77 334.05 79
497480.52 5420302.4 334.1 32
497476.69 5420295.43 333.96 66
497477.03 5420294.94 334.03 14
497476.27 5420303.52 334.05 85
497475.49 5420292.36 334.05 96
497480.71 5420298.83 334.08 90
497488.94 5420286.2 333.82 2
497481.81 5420305.06 328.05 125
497479.82 5420294.83 334 97
497477.38 5420288.46 334.03 70
497474.53 5420290.66 333.99 58
497480.03 5420290.86 333.98 66
497489.72 5420293.14 328.35 133
497474.31 5420288.48 333.96 92
497489.64 5420294.75 328.29 29
497481.02 5420292.7 334.02 88
497475.42 5420293.64 333.98 114
497478.29 5420297.19 334.03 78
497491.71 5420290.35 328.41 31
497481.14 5420296.86 334.05 62
497479.07 5420302.85 334.1 93
497474.18 5420297.04 334.03 63
497488.23 5420293.93 328.24 133
497483.66 5420296.35 333.86 14
497481.54 5420289.52 334.01 57
497487.29 5420288.23 334.3 3
497482.47 5420297.9 333.92 4
497487.48 5420284.81 334.08 51
497482.14 5420297.67 334.23 2
497490.04 5420293.36 328.33 16
497485.05 5420299.01 329.21 44
497474.87 5420304.16 334.02 93
497485.51 5420288.96 334.33 59
497481.55 5420289.21 334 65
497482.57 5420296.24 332.53 50
497480.39 5420305.11 333.86 8
497476.32 5420302.64 334.04 86
497490.19 5420290.4 328.77 103
497488.18 5420294.88 328.25 75
497483.96 5420298.37 328.15 117
497479.6 5420292.56 334.01 76
497484.17 5420294.34 328.26 75
497480.34 5420285.2 333.98 69
497474.73 5420286.9 333.98 52
497482.13 5420305.09 328.04 112
497476.01 5420288.71 334.03 87
497483.94 5420298.67 328.14 121
497485.57 5420287.75 334.1 76
497482.35 5420293.57 334.54 3
497488.54 5420286.46 333.86 3
497479.77 5420295.65 334.28 1
497479.16 5420301.09 334.08 85
497478.62 5420291.11 333.98 82
497473.85 5420297.24 334.01 87
497476.91 5420297.06 334.01 67
497479.68 5420291 334 83
497474.41 5420286.53 334.02 81
497489.86 5420290.3 328.15 175
497475.57 5420296.73 333.96 69
497482.56 5420296.24 333.48 51
497479.19 5420300.5 334.05 82
497483.95 5420291.68 326.38 35
497477.95 5420297.65 334.02 94
497478.88 5420286.38 334.03 70
497477.4 5420288.14 334.05 81
497478.28 5420291.14 334.03 100
497482.76 5420285.45 333.98 57
497475.42 5420299.41 333.99 83
497481.03 5420292.38 334.02 96
497481.66 5420287.33 333.98 59
497484.43 5420288.52 334.08 18
497487.1 5420284.76 334.11 90
497477.99 5420296.73 334.05 77
497490.21 5420290.01 329.04 56
497475.18 5420303.76 334.02 67
497481.29 5420287.28 334.04 70
497493.38 5420286.23 328.93 2
497479.58 5420292.88 333.99 94
497488.57 5420294.13 329.43 55
497487.26 5420288.87 334.28 2
497480.22 5420287.42 333.99 95
497476.61 5420302.63 334.04 70
497481.1 5420291.11 334.04 92
497472.94 5420294.54 333.94 82
497485.68 5420293.32 328.42 14
497488.2 5420294.26 329.23 26
497477.91 5420298.27 334.03 88
497485.77 5420291.68 328.6 130
497482.02 5420300.2 333.86 2
497478.18 5420293.04 334.01 71
497478.58 5420285.35 334.05 94
497481.18 5420289.54 334.02 96
497485.67 5420285.82 334.05 71
497485.54 5420288.41 334.05 93
497482.25 5420296.26 328.94 165
497478.02 5420296.14 334.01 80
497474.14 5420291.66 333.99 90
497475.63 5420289.53 334.01 93
497488.32 5420291.69 330.37 96
497480.3 5420285.83 333.99 83
497476.26 5420303.81 334.06 78
497480.32 5420285.5 334.01 89
497486.07 5420284.98 334.03 51
497488.92 5420286.52 333.81 1
497473.88 5420296.62 334.03 88
497482.48 5420290.91 334 80
497489.76 5420292.05 329.79 184
497478.64 5420290.8 334 71
497477.08 5420294.04 333.99 54
497475.62 5420295.83 333.96 70
497473.98 5420294.77 334.02 87
497489.97 5420288 328.14 157
497479.78 5420289.07 334.02 99
497481.41 5420285.04 333.96 95
497474.84 5420304.74 334.02 88
497483.76 5420301.85 329.45 35
497480.12 5420289.3 334 77
497479.44 5420295.58 334.28 1
497480.24 5420287.1 334 88
497480.36 5420284.87 334 75
497482.83 5420291.15 334.14 29
497474.6 5420289.42 333.97 71
497490.07 5420286.02 328.14 4
497475.63 5420295.54 333.94 68
497478.55 5420286.01 334.04 84
497476.13 5420286.5 334 69
497473.73 5420305.17 334.02 113
497484.46 5420287.9 334.01 71
497475.68 5420288.57 333.99 98
497475.39 5420294.24 334.01 68
497476.14 5420286.2 333.99 64
497474.56 5420290.04 333.99 68
497481.69 5420286.7 333.97 67
497473.03 5420287.03 334 106
497478.26 5420297.79 334.02 54
497491.66 5420291.32 328.36 24
497480.13 5420288.98 334 85
497483.08 5420286.47 334.02 60
497474.16 5420297.34 333.99 62
497491.36 5420290.22 328.4 150
497479.99 5420284.87 334.02 86
497475.43 5420299.11 333.98 76
497475.48 5420298.23 333.96 72
497487.23 5420289.62 333.86 2
497473.1 5420285.72 334.04 91
497490.08 5420292.21 330.08 54
497490.05 5420286.35 328.15 28
497476.5 5420304.62 334.04 75
497487.04 5420294.13 328.23 67
497476.82 5420298.85 333.99 67
497474.44 5420285.87 334.03 90
497480.95 5420300.39 334.09 74
497485.47 5420297.42 328.15 115
497481.99 5420300.81 333.85 2
497473.95 5420295.39 334.05 77
497481.32 5420286.66 333.98 102
497489.92 5420288.97 328.23 165
497474.19 5420290.71 333.98 86
497480.74 5420298.23 334.09 93
497484.52 5420286.95 334.04 59
497473.01 5420287.35 334.01 97
497488.66 5420292.62 328.2 117
497481.59 5420288.58 334.01 64
497478.47 5420293.87 334.02 62
497474.39 5420293.11 334.01 64
497475.92 5420290.29 334.02 75
497477.12 5420287.18 334.05 88
497473.27 5420288.66 333.99 74
497475.35 5420300.58 334.01 77
497473.83 5420297.55 333.98 83
497477.98 5420297.05 334.01 79
497489.94 5420288.65 328.17 157
497482.42 5420292.16 334.05 80
497491.56 5420285.99 328.27 4
497480.8 5420303.36 333.89 2
497485.22 5420295.68 328.93 37
497476.77 5420293.88 333.99 72
497477.71 5420302.14 334.06 86
497481.47 5420290.77 334.01 58
497485.07 5420298.73 328.14 129
497491.34 5420290.51 328.51 71
497492.95 5420287.42 328.82 131
497480.91 5420301.26 334.12 10
497480.17 5420288.36 334 83
497474.13 5420297.93 334.02 55
497473.8 5420298.16 333.99 78
497475.9 5420290.59 334.01 76
497473.48 5420304.4 333.95 66
497482.65 5420287.71 334.02 67
497475.36 5420294.78 334.3 3
497486.97 5420287.37 334.09 96
497482.89 5420289.94 334 66
497472.98 5420293.92 333.97 84
497477.35 5420289.08 334.05 76
497476.2 5420285.24 333.97 47
497476.16 5420285.87 334 61
497484.02 5420297.15 328.15 114
497481.15 5420290.17 334 83
497490.01 5420293.99 328.32 15
497474.43 5420292.51 333.99 64
497473.87 5420296.94 334 97
497488.84 5420289.17 328.12 148
497478.16 5420299.56 334.02 78
497477.89 5420304.47 334.05 72
497473.04 5420286.69 334.03 93
497483.54 5420299.7 328.11 199
497474.08 5420298.75 334.26 1
497491.69 5420290.69 328.39 27
497478.56 5420285.67 334.06 86
497474.39 5420286.86 334.01 79
497476.09 5420287.15 333.98 72
497484.57 5420285.98 334.06 67
497475.26 5420296.73 333.97 101
497482.1 5420298.55 334.33 5
497483.82 5420294.01 328.27 89
497478.11 5420300.45 334.03 73
497480.86 5420302.09 334.27 3
497485.72 5420284.84 334.05 77
497490.27 5420288.98 328.21 129
497480.85 5420302.34 334.35 2
497479.32 5420298.1 334.05 78
497488.62 5420284.71 334.29 2
497482.45 5420291.55 334.01 70
497482.27 5420302.43 328.11 0
497474.68 5420287.86 333.97 56
497474.63 5420288.8 333.96 52
497473.99 5420294.47 334.04 87
497480.8 5420297.02 334.07 97
497474.66 5420288.17 333.94 56
497491.78 5420288.69 329.71 67
497478.06 5420295.53 333.99 86
497474.31 5420294.65 333.98 71
497487.03 5420286.08 334.08 86
497479.95 5420292.4 334 88
497475.68 5420294.59 334.05 18
497488.86 5420288.84 328.13 133
497479 5420304.3 334.09 84
497484.04 5420288.64 334.37 88
497478.67 5420290.18 334 79
497477.42 5420287.83 334.05 75
497484.33 5420291.58 327.04 175
497475.67 5420294.92 333.97 63
497478.46 5420287.62 334.03 84
497479.85 5420294.22 334.02 102
497482.08 5420298.96 333.98 2
497479.73 5420290.03 334.04 85
497473.31 5420288.02 334 84
497480.7 5420305.08 333.84 5
497485.67 5420293.69 328.21 61
497484.25 5420292.77 328.28 86
497476.2 5420304.97 334.07 86
497480.94 5420300.69 334.08 61
497491.75 5420289.46 329.31 102
497477.23 5420291.26 334.03 79
497475.34 5420295.1 334.26 2
497486.9 5420288.65 334.11 89
497480.97 5420293.64 334.01 86
497474.26 5420289.44 333.99 67
497489.96 5420294.93 328.28 15
497477.1 5420287.51 334.05 94
497476.64 5420302.05 334.04 64
497474.98 5420302.1 334.06 90
497491.43 5420288.62 329.38 157
497475.5 5420292.06 334.03 88
497479.7 5420296.92 334.07 93
497474.44 5420292.2 333.98 68
497477 5420295.57 333.96 78
497485.87 5420288.78 334.05 63
497478.6 5420285.03 334.04 90
497479.79 5420288.77 334.01 95
497475.21 5420297.64 333.96 86
497488.59 5420285.47 333.89 3
497487.06 5420285.41 334.12 105
497480.07 5420290.24 333.99 80
497478.36 5420289.55 334.03 101
497492.93 5420287.84 328.49 31
497485.06 5420299.03 328.13 150
497477.86 5420305.03 334.08 69
497476.39 5420301.16 334.05 80
497478.13 5420293.97 334.02 84
497478.14 5420299.86 334.03 69
497491.86 5420287.29 329.06 144
497483.48 5420300.93 328.11 161
497483.8 5420294.34 328.28 83
497478.51 5420286.65 334.04 102
497479.9 5420293.32 334 73
497475.83 5420285.67 333.99 104
497484.62 5420285.04 334.03 64
497481 5420293.01 334.04 96
497483.88 5420292.73 328.27 98
497479.26 5420299.29 334.06 74
497483.43 5420301.85 328.08 177
497479.61 5420298.71 334.07 84
497483.01 5420287.74 334.02 85
497480.64 5420300.04 334.07 103
497475.97 5420289.35 334 72
497485.39 5420292.36 328.39 210
497491.41 5420289.03 329.11 149
497476.77 5420299.73 333.99 75
497481.32 5420293.55 333.98 74
497477.22 5420285.23 334.02 102
497478.43 5420288.28 334.02 82
497475.34 5420300.86 334.03 74
497476.18 5420285.56 333.96 46
497490.37 5420287.06 328.17 111
497478.05 5420301.6 334.04 68
497475.2 5420303.47 334.03 71
497476.92 5420291.03 334.03 94
497478.35 5420289.87 334.04 96
497491.47 5420287.61 329.49 167
497476.48 5420299.38 334.02 91
497485.52 5420296.48 328.21 53
497489.95 5420288.33 328.17 139
497478.19 5420298.97 334.03 85
497480.83 5420296.41 334.04 98
497490.38 5420286.73 328.19 97
497480.72 5420304.79 333.86 3
497485.86 5420289.03 334.3 34
497477.58 5420304.76 334.07 84
497484.12 5420295.17 328.58 139
497490.13 5420284.7 328.1 13
497482 5420300.5 333.88 2
497478.01 5420296.44 334.02 78
497473.17 5420290.53 333.98 71
497487.11 5420292.8 328.53 34
497476.79 5420293.56 334.01 81
497490 5420287.34 328.16 136
497483.11 5420285.84 334 56
497481.6 5420288.27 334 61
497473.43 5420285.8 334.01 81
497482.68 5420287.07 334.01 65
497482.13 5420297.96 334.27 2
497489.95 5420295.25 328.26 14
497477.13 5420293.11 334.03 65
497477.82 5420300.07 334.03 85
497487.33 5420287.66 334.11 40
497487.02 5420286.39 334.09 99
497488.62 5420293.11 329.68 110
497491.4 5420289.08 330.06 124
497478 5420302.46 334.05 89
497475.24 5420297.03 333.98 93
497476.33 5420302.35 334.04 79
497491.49 5420287.38 329.19 184
497475.29 5420301.73 334.02 67
497485.58 5420295.24 328.23 76
497475.19 5420297.95 333.96 94
497475.32 5420301.15 334.03 67
497479.34 5420303.65 334.07 79
497491.81 5420288.19 329.26 172
497476.5 5420299.08 334.02 102
497484.06 5420288.4 334.11 26
497486.86 5420289.56 334.33 61
497472.96 5420294.22 333.97 68
497486 5420286.26 334.06 48
497477.97 5420303.04 334.05 76
497474.54 5420290.36 333.96 71
497476.74 5420300.31 333.99 69
497482.19 5420296.8 334.09 78
497483.78 5420301.68 329.03 109
497476.18 5420305.26 334.06 88
497479.31 5420304.22 334.07 80
497480.25 5420286.78 333.99 91
497476.53 5420298.48 334.01 100
497479.22 5420299.91 334.05 97
497481.71 5420286.38 333.98 84
497482.59 5420296.29 329.41 149
497480.78 5420303.66 333.85 3
497475.18 5420298.25 333.99 85
497479.33 5420297.79 334.06 81
497478.97 5420304.9 334.04 95
497473.08 5420286.05 334.04 93
497482.23 5420296.16 332.22 51
497491.3 5420291.52 328.38 25
497477.56 5420285.3 334.02 73
497475.15 5420304.32 334.03 70
497476.21 5420284.92 333.97 61
497480.95 5420293.96 334 80
497485.42 5420291.68 328.47 197
497485.5 5420296.81 328.15 67
497474.92 5420303.29 334.01 95
497490.29 5420288.66 328.19 121
497475.6 5420296.13 333.98 64
497477.33 5420289.39 334.05 77
497482.78 5420291.95 334.54 2
497491.44 5420288.3 329.39 175
497479.83 5420294.53 334.02 87
497488.4 5420290.41 328.19 82
497490.14 5420291.17 330.41 68
497473.89 5420302.34 333.94 78
497481.72 5420286.06 333.96 74
497478.5 5420293.25 334.02 67
497478.32 5420296.59 334.02 70
497485.97 5420286.89 334.06 48
497482.77 5420292.26 334.52 3
497475.27 5420296.43 333.95 79
497481.97 5420301.09 333.86 2
497478.96 5420305.17 334.07 89
497476.8 5420299.13 334.02 68
497475.04 5420300.94 334 82
497484.15 5420294.66 328.24 71
497475.7 5420294.22 334.28 1
497483.09 5420286.15 333.99 64
497478.59 5420291.72 334 77
497478.74 5420288.92 334 81
497481.26 5420294.77 333.99 66
497480.6 5420300.93 334.08 83
497481.37 5420292.62 334 51
497483.96 5420291.65 325.43 64
497476.24 5420304.11 334.06 100
497479.55 5420293.5 334 76
497473.74 5420304.9 333.97 90
497484.3 5420292.2 327.06 171
497479.09 5420302.56 334.08 81
497476.87 5420297.95 334.01 66
497474.93 5420303 334.01 87
497478.22 5420298.38 334.02 68
497479.54 5420299.88 334.07 80
497491.8 5420288.44 329.48 110
497479.62 5420298.41 334.07 80
497475.27 5420302.02 334.04 84
497484.24 5420284.85 334.04 79
497475.77 5420293.07 334.04 111
497486.66 5420294.59 328.23 87
497474.1 5420298.44 334.29 2
497478.2 5420292.72 334.02 110
497476.61 5420296.96 334 79
497477.94 5420303.61 334.07 77
497483.99 5420297.76 328.15 115
497481.02 5420299.23 334.07 68
497485.69 5420285.49 334.05 79
497482.39 5420292.65 334.5 4
497485.65 5420286.14 334.05 74
497480.92 5420294.58 333.98 87
497490.25 5420289.29 328.23 109
497479.81 5420288.44 334 91
497482.61 5420295.87 329.81 74
497485.44 5420291.39 328.4 131
497482.2 5420296.44 334.28 2
497477.99 5420302.75 334.06 66
497480.42 5420304.52 333.88 10
497475.85 5420291.52 334.02 71
497477.21 5420291.58 334.03 74
497475.02 5420301.23 334.02 90
497474.89 5420303.87 334.01 90
497473.49 5420304.1 333.96 73
497481.62 5420287.95 333.99 67
497477.15 5420292.81 334.04 66
497481.96 5420301.39 333.86 2
497477.13 5420286.86 334.03 90
497490.1 5420291.93 329.98 109
497485.45 5420297.74 328.12 189
497482.94 5420289.01 333.97 67
497480.48 5420303.21 334.34 4
497491.31 5420291.2 328.37 26
497479.43 5420295.98 334.02 86
497488.96 5420285.88 333.82 2
497484.55 5420286.31 334.06 69
497488.59 5420293.67 329.89 74
497490.32 5420288.02 328.19 110
497482.03 5420299.91 333.85 2
497481.26 5420287.95 334 87
497478.65 5420290.48 334.02 95
497477.02 5420289.11 334.04 92
497474.8 5420285.61 334.03 76
497491.38 5420289.48 329.77 80
497483.57 5420299.08 328.13 130
497474.29 5420288.8 333.97 82
497478.3 5420296.89 334.04 75
497479.03 5420303.72 334.1 84
497485.75 5420292.05 328.45 123
497480.15 5420288.67 333.98 96
497474.83 5420305.03 334.01 93
497479.5 5420294.42 334.03 93
497478.37 5420295.7 333.98 65
497481.86 5420304.17 328.06 106
497478.02 5420302.17 334.07 67
497488.65 5420292.53 329.54 1
497480.83 5420302.71 334.12 2
497479.54 5420293.81 334.01 81
497489.71 5420293.05 329.69 14
497479.67 5420297.52 334.06 80
497475.7 5420288.25 333.99 104
497483.43 5420301.64 329.69 76
497475.75 5420287.29 333.96 85
497478.44 5420294.48 334.01 68
497473.29 5420288.34 333.99 91
497473.15 5420290.82 334.01 74
497486.87 5420289.25 334.26 12
497475.94 5420289.97 334.02 84
497476.66 5420301.76 334.04 66
497482.73 5420286.1 334.01 74
497481.64 5420287.64 334 62
497475.8 5420292.45 334.05 71
497490.3 5420288.35 328.2 92
497477.59 5420304.47 334.08 81
497484.48 5420287.58 334.06 65
497482.99 5420288.04 334.02 74
497476.63 5420302.34 334.04 60
497475.53 5420291.42 334.04 100
497473.25 5420288.96 334 94
497483.69 5420296.31 330.01 66
497482.86 5420290.56 334 79
497481.36 5420286 333.98 111
497472.96 5420288.31 334.02 89
497484.24 5420293.07 328.32 29
497482.5 5420297.18 334.32 3
497476.8 5420293.23 334.05 82
497490.12 5420291.64 329.88 106
497476.87 5420291.98 334.04 85
497480.99 5420293.33 334 95
497479.48 5420301.05 334.08 85
497479.38 5420296.88 334.05 99
497476.56 5420303.48 334.04 77
497473 5420293.62 333.95 79
497476.36 5420301.76 334.04 77
497478.72 5420289.22 334.02 84
497478.13 5420300.15 334.02 81
497483.55 5420299.38 328.16 138
497484.45 5420288.22 334.02 84
497477.67 5420303.01 334.09 88
497474.08 5420292.92 333.99 89
497476.93 5420296.76 334.02 61
497479.46 5420295.34 334.05 65
497484.09 5420295.8 328.54 148
497489.98 5420287.67 328.16 124
497483.88 5420299.89 328.12 127
497491.73 5420290.04 328.41 27
497476.66 5420296.03 334 80
497477.76 5420301.26 334.03 90
497485.9 5420288.16 334.05 54
497476.41 5420300.88 334.02 84
497474.28 5420295.25 334.01 65
497480.57 5420301.53 334.07 100
497474.17 5420291.03 333.99 90
497478.4 5420288.91 334.04 77
497479.18 5420300.79 334.08 89
497473.6 5420302.06 333.96 67
497479.24 5420299.6 334.07 91
497478.84 5420287.03 334.03 70
497479.33 5420303.93 334.06 84
497477.2 5420291.89 334.01 84
497476.72 5420294.72 334.26 1
497482.47 5420291.23 334.01 61
497487.28 5420288.55 334.28 2
497476.9 5420297.35 334.01 62
497473.84 5420303.2 333.94 62
497480.18 5420288.04 334.01 83
497489.67 5420294.11 328.3 25
497474.99 5420301.82 334.02 86
497487.38 5420286.72 334.07 68
497484.14 5420294.96 328.27 57
497483.63 5420297.83 328.14 132
497482.66 5420295.09 328.34 12
497485.92 5420287.83 334.09 48
497479.42 5420302.21 334.08 82
497488.75 5420290.96 328.51 52
497482.6 5420288.67 334.03 74
497481.24 5420288.26 334 136
497475.45 5420293 334.03 110
497488.53 5420286.78 333.87 4
497476.83 5420292.61 334.04 87
497482.11 5420298.25 334.31 3
497477.87 5420299.17 334.03 84
497481.45 5420291.08 334.03 70
497482.57 5420289.32 334 70
497481.34 5420286.34 333.96 104
497483.79 5420301.25 329.49 127
497486.72 5420293.32 328.23 88
497477.18 5420292.2 334.01 69
497482.16 5420297.41 334.1 21
497476.75 5420294.18 333.99 96
497482.84 5420290.87 334.02 74
497483.74 5420295.55 328.42 41
497481.74 5420285.75 333.96 75
497474.46 5420291.89 334 71
497482.23 5420296.16 333.21 54
497482.63 5420288.03 334.03 68
497478.27 5420297.48 334.02 89
497474.77 5420286.26 334 60
497483.81 5420301.09 328.11 127
497477.06 5420294.35 334 71
497474.14 5420297.64 333.99 74
497484.22 5420285.17 334.04 84
497475.47 5420298.54 333.95 74
497476.52 5420298.78 334.02 94
497488.7 5420291.7 329.18 2
497476.23 5420304.39 334.04 82
497477.85 5420299.48 334.03 82
497479.27 5420299 334.05 96
497478.49 5420293.56 334.03 61
497479.15 5420301.39 334.07 91
497475.72 5420294 333.99 75
497479.96 5420285.53 334.01 90
497478.75 5420288.6 334.01 82
497476.63 5420296.65 334 76
497483.89 5420299.59 328.14 139
497483.84 5420293.69 328.27 92
497480.73 5420304.52 333.82 2
497487.34 5420287.35 334.06 58
497479.3 5420298.4 334.04 72
497477.65 5420303.31 334.06 91
497483.86 5420300.19 328.13 138
497474.03 5420299.7 334.03 29
497479.71 5420290.36 334 97
497483.51 5420300.31 328.12 170
497484.16 5420286.47 334.05 80
497479.4 5420302.5 334.08 88
497474.95 5420302.7 334.03 91
497485.64 5420286.47 334.05 72
497486.8 5420291.67 328.37 88
497490.42 5420286.1 328.15 1
497488.61 5420285.14 333.9 5
497474.41 5420292.81 334 67
497480.27 5420286.46 333.99 80
497478.31 5420290.5 334.05 88
497490.16 5420290.77 329.65 87
497473.93 5420301.46 333.99 14
497474.01 5420300.02 333.96 70
497476.45 5420299.99 334.01 85
497488.33 5420291.6 329.57 139
497475.72 5420287.92 333.99 79
497482.25 5420296.23 329.99 130
497479.69 5420297.23 334.06 90
497491.53 5420286.68 328.19 1
497485.99 5420286.58 334.05 47
497480.89 5420301.51 334.25 1
497482.16 5420304.5 328.04 109
497479.12 5420301.97 334.09 114
497480.98 5420299.82 334.06 69
497488.25 5420293.18 329.64 32
497474.24 5420295.86 333.97 63
497478.24 5420298.09 334.03 72
497476.85 5420298.25 333.99 67
497482.12 5420305.13 328.77 96
497483.83 5420300.79 328.13 147
497489.77 5420291.74 329.81 170
497484.27 5420292.56 327.93 90
497474.33 5420294.33 334.01 67
497483.03 5420287.42 334.01 71
497477.73 5420301.85 334.03 82
497482.37 5420299.7 333.82 2
497473.48 5420284.84 334.02 72
497473.97 5420300.89 333.95 68
497483.45 5420301.53 328.11 160
497484.12 5420287.13 334.05 76
497482.15 5420304.8 328.04 122
497490.24 5420289.61 328.2 115
497481.5 5420290.15 334.01 67
497479.98 5420291.77 334 102
497479.66 5420291.31 333.97 79
497482.66 5420287.38 334.03 88
497480.78 5420297.31 334.09 97
497474.07 5420299.06 334.21 1
497476.83 5420298.55 333.99 66
497487.12 5420292.58 328.22 73
497477.43 5420287.52 334.02 71
497476.6 5420302.91 334.06 85
497473.93 5420295.7 334.03 95
497473.79 5420304.04 333.95 57
497477.93 5420297.96 334.03 77
497475.75 5420293.39 334.01 62
497482.06 5420299.29 333.9 4
497480.72 5420298.53 334.1 116
497473.46 5420304.69 333.95 72
497473.13 5420291.15 333.98 75
497473.41 5420286.12 334 88
497483.98 5420298.06 328.16 113
497476.47 5420299.68 334.02 84
497491.28 5420291.84 328.39 29
497482.44 5420298.5 333.89 2
497473.79 5420298.46 334 86
497473.95 5420301.18 333.97 75
497482.78 5420285.12 333.99 63
497490.02 5420287.01 328.14 158
497480.61 5420300.64 334.07 86
497485.96 5420287.2 334.08 99
497490.15 5420291.07 329.7 135
497485.57 5420295.56 328.2 79
497478.99 5420304.6 334.06 85
497473.03 5420292.99 334.01 48
497481.42 5420284.7 333.98 87
497486.67 5420294.27 328.25 87
497481.52 5420289.84 334 48
497484.58 5420285.67 334.03 71
497476.35 5420302.06 334.04 84
497480.2 5420287.72 334 79
497490.03 5420286.69 328.15 145
497473.11 5420285.39 334.03 86
497481.03 5420298.94 334.04 57
497493.02 5420285.84 329.67 6
497479.63 5420291.94 333.99 83
497476.95 5420290.39 334.06 97
497481.79 5420284.79 333.95 68
497476.67 5420301.47 334.02 70
497475.13 5420299.15 333.99 94
497478.38 5420289.24 334.02 94
497482.22 5420296.16 334.19 46
497475.83 5420291.84 334.02 79
497478.41 5420295.02 334.25 1
497491.87 5420287.18 328.32 16
497476.93 5420290.7 334.09 97
497485.63 5420294.31 328.22 53
497477.17 5420286.21 334.05 81
497473.44 5420285.47 334.02 79
497487.1 5420292.98 328.94 32
497479.53 5420300.18 334.05 83
497481.24 5420295.06 334 70
497485.5 5420289.28 334.34 21
497477.81 5420300.37 334.03 94
497478.12 5420294.28 334.01 76
497486.98 5420287.06 334.07 111
497479.39 5420296.57 334.06 92
497489.9 5420289.31 328.21 174
497475.12 5420304.89 334.03 75
497481.13 5420290.49 334.01 79
497481.76 5420285.43 333.97 60
497487 5420286.72 334.09 113
497478.69 5420289.86 334.01 79
497475.73 5420287.62 333.97 96
497476.69 5420301.18 334.02 75
497479.87 5420293.92 334.01 85
497475.23 5420297.34 333.98 99
497451.91 5420226.49 322.68 79
497452.11 5420222.95 322.63 83
497451.43 5420235.24 317.69 85
497452.14 5420235.62 317.73 63
497452.02 5420224.53 322.66 32
497452.07 5420223.73 322.67 84
497452.19 5420234.82 317.71 41
497451.41 5420228.37 322.69 108
497451.87 5420227.28 322.69 71
497451.73 5420229.63 322.68 66
497450.33 5420227.95 322.68 97
497450.5 5420224.77 322.67 100
497452.27 5420233.06 322.89 26
497449.5 5420222.91 322.71 140
497450.62 5420229.66 322.68 80
497450.84 5420225.73 322.65 80
497450.48 5420225.16 322.68 92
497451.44 5420227.97 322.68 115
497450.73 5420227.7 322.68 83
497451.22 5420231.95 322.69 95
497450.59 5420223.17 322.69 78
497451.45 5420234.86 317.71 42
497450.37 5420227.16 322.68 106
497452.09 5420223.1 330.96 1
497450.7 5420228.1 322.68 80
497451.52 5420226.37 322.7 109
497451.66 5420223.96 322.71 98
497451.39 5420228.76 322.71 133
497451.07 5420234.88 317.71 64
497450.97 5420223.36 322.69 74
497450.93 5420224.15 322.66 71
497451.33 5420229.95 322.7 95
497451.53 5420233.21 322.24 23
