1514
497748.94 5420024.9 335.29 92
497749.24 5420024.18 335.63 82
497750.03 5420024.26 335.36 77
497749.73 5420024.61 335.28 91
497749.24 5420024.52 335.45 79
497749.23 5420024.86 335.26 75
497748.95 5420024.23 335.65 89
497748.44 5420023.5 336.15 67
497749.74 5420024.29 335.43 96
497748.44 5420023.84 335.98 77
497750.03 5420024.58 335.22 79
497750.81 5420023.23 335.76 74
497750.53 5420023.18 335.82 90
497752.07 5420023.27 335.43 91
497751.35 5420021.91 336.3 94
497751.35 5420022.23 336.14 93
497751.33 5420023.17 335.63 105
497751.36 5420021.28 336.66 2
497751.58 5420022.47 335.96 56
497751.57 5420023.11 335.62 59
497751.59 5420021.83 336.29 79
497750.82 5420022.25 336.26 70
497752.11 5420021.34 336.45 81
497751.36 5420021.6 336.51 96
497750.82 5420022.57 336.11 65
497750.55 5420022.19 336.32 90
497752.36 5420022.15 335.96 72
497751.59 5420022.15 336.14 64
497752.37 5420021.48 336.3 59
497750.84 5420021.28 336.77 71
497752.34 5420023.15 335.42 80
497752.09 5420022.62 335.76 101
497752.36 5420021.81 336.13 71
497750.56 5420021.55 336.67 87
497750.83 5420021.59 336.6 72
497750.81 5420022.9 335.91 64
497750.54 5420022.53 336.17 94
497752.1 5420021.65 336.26 95
497751.34 5420022.53 335.96 102
497751.59 5420021.5 336.44 3
497751.34 5420022.85 335.79 106
497750.56 5420021.23 336.87 86
497750.83 5420021.93 336.44 65
497752.09 5420022.3 335.95 104
497751.58 5420022.79 335.79 59
497752.35 5420022.48 335.79 87
497751.57 5420023.44 335.45 56
497752.35 5420022.81 335.6 79
497752.1 5420021.97 336.1 102
497750.53 5420022.86 335.99 101
497752.08 5420022.94 335.61 95
497750.55 5420021.88 336.5 92
497757.46 5420019.69 336.12 91
497758.1 5420020.79 335.47 6
497757.47 5420019.09 336.4 90
497757.45 5420019.98 335.96 94
497758.1 5420020.47 335.55 94
497758.33 5420019.14 336.17 74
497759.01 5420020.2 335.46 59
497758.31 5420020.1 335.68 62
497759.03 5420019.56 335.79 61
497757.43 5420020.89 335.47 98
497758.32 5420019.46 335.99 74
497759.02 5420019.88 335.62 57
497757.44 5420020.58 335.64 89
497757.68 5420019.47 336.15 72
497757.69 5420019.16 336.32 81
497758.13 5420019.28 336.15 87
497758.12 5420019.87 335.83 91
497757.67 5420020.12 335.82 78
497758.78 5420021.06 335.25 8
497758.14 5420018.98 336.31 91
497759.01 5420020.53 335.29 44
497758.09 5420021.11 335.39 3
497758.12 5420019.57 336 89
497758.8 5420020.13 335.56 94
497757.65 5420020.76 335.5 79
497757.66 5420020.43 335.65 75
497758.11 5420020.18 335.68 103
497758.3 5420020.41 335.52 55
497757.67 5420019.8 335.99 79
497758.82 5420019.23 336.02 87
497757.65 5420021.07 335.32 82
497758.79 5420020.42 335.43 25
497758.3 5420020.76 335.45 3
497759 5420020.87 335.26 1
497758.81 5420019.52 335.83 93
497757.42 5420021.17 335.31 88
497757.46 5420019.39 336.25 91
497757.44 5420020.28 335.79 88
497758.8 5420019.82 335.69 92
497758.31 5420019.78 335.83 70
497759.03 5420019.25 335.95 62
497756.15 5420024.15 334.06 73
497756.87 5420024.48 333.69 51
497755.41 5420023.86 334.37 77
497755.88 5420024.67 333.83 99
497755.13 5420024.08 334.33 91
497755.4 5420024.19 334.17 79
497755.89 5420024.35 333.98 92
497755.38 5420025.19 333.62 18
497755.89 5420024.02 334.14 100
497755.11 5420025.06 333.79 99
497755.14 5420023.76 334.46 110
497756.89 5420023.83 334.05 61
497755.87 5420024.98 333.61 23
497756.13 5420024.81 333.71 61
497755.41 5420023.54 334.54 85
497756.88 5420024.15 333.86 54
497756.89 5420023.5 334.22 60
497756.63 5420024.47 333.77 77
497755.4 5420024.53 334 80
497756.15 5420023.81 334.21 81
497756.64 5420023.85 334.07 78
497755.12 5420024.74 333.96 89
497756.63 5420024.17 333.94 83
497756.65 5420023.56 334.24 91
497755.9 5420023.71 334.31 100
497755.13 5420024.4 334.13 91
497756.16 5420023.48 334.38 75
497755.39 5420024.87 333.84 76
497756.14 5420024.48 333.89 77
497760.69 5420021.13 334.59 80
497760.93 5420020.52 334.85 71
497759.39 5420020.9 334.98 79
497761.56 5420019.78 335.12 81
497761.54 5420020.74 334.58 85
497761.55 5420020.41 334.74 80
497761.32 5420020.91 334.56 94
497760.28 5420020.34 335.08 57
497761.56 5420020.09 334.92 83
497760.7 5420020.52 334.9 97
497761.35 5420020 335 96
497760.93 5420020.2 335 70
497760.7 5420020.82 334.74 89
497759.59 5420020.98 334.93 75
497759.59 5420020.66 335.11 79
497760.26 5420020.99 334.75 55
497761.34 5420020.31 334.88 89
497759.39 5420021.19 334.85 89
497760.92 5420020.84 334.68 61
497760.05 5420020.97 334.81 88
497760.06 5420020.68 334.98 102
497760.91 5420021.17 334.5 66
497761.33 5420020.61 334.73 84
497760.07 5420020.37 335.11 93
497761.32 5420021.21 334.39 105
497759.4 5420020.59 335.15 84
497760.27 5420020.67 334.92 59
497760.71 5420020.22 335.06 91
497761.53 5420021.06 334.43 75
497750.85 5420017.64 336.59 75
497751.39 5420017.47 336.7 95
497751.39 5420017.11 336.65 100
497752.14 5420018.65 337.14 89
497752.4 5420018.74 337.25 71
497750.58 5420016.85 336.62 86
497752.14 5420017.85 336.7 89
497751.62 5420018.38 336.83 3
497752.14 5420017.44 336.49 87
497750.57 5420017.86 336.35 12
497751.38 5420018.16 336.73 68
497750.58 5420017.18 336.53 92
497751.39 5420018.95 337.11 93
497750.57 5420018.26 336.55 87
497750.85 5420017.31 336.67 71
497752.4 5420017.48 336.57 66
497752.4 5420017.08 336.4 67
497751.62 5420017.24 336.51 57
497751.39 5420016.75 336.56 103
497751.39 5420017.85 336.85 114
497751.62 5420017.62 336.64 58
497751.62 5420018 336.71 23
497750.85 5420017.98 336.47 14
497750.86 5420016.98 336.77 66
497751.62 5420018.78 337.08 56
497752.4 5420018.32 337.01 66
497752.13 5420017.04 336.28 26
497750.85 5420018.38 336.67 76
497752.4 5420017.9 336.79 69
497751.38 5420018.55 336.9 92
497750.58 5420017.53 336.47 82
497751.62 5420016.88 336.45 55
497752.14 5420018.24 336.92 89
497745.15 5420017.44 334.39 78
497744.29 5420017.98 334.34 38
497745.15 5420016.76 334.48 71
497745.15 5420017.16 334.7 77
497745.73 5420016.98 334.77 107
497744.28 5420018.3 334.16 84
497744.87 5420017.71 334.24 197
497744.87 5420017.35 334.21 36
497745.73 5420017.4 334.98 103
497756.18 5420022.16 335.08 72
497756.68 5420022.03 335.03 80
497755.91 5420023.39 334.48 89
497756.16 5420023.14 334.55 82
497756.67 5420022.64 334.72 82
497755.15 5420023.11 334.8 87
497756.91 5420022.53 334.74 58
497755.15 5420023.44 334.64 105
497755.93 5420022.43 334.99 98
497755.43 5420022.55 335.07 74
497755.43 5420022.87 334.89 77
497756.65 5420023.25 334.4 77
497756.17 5420022.83 334.73 84
497756.18 5420022.5 334.9 75
497755.91 5420023.07 334.67 90
497756.9 5420022.85 334.55 66
497755.16 5420022.79 334.99 90
497755.92 5420022.75 334.82 93
497755.17 5420022.48 335.15 93
497756.92 5420021.88 335.06 61
497755.42 5420023.2 334.69 81
497756.92 5420022.2 334.9 64
497756.9 5420023.17 334.4 60
497756.66 5420022.95 334.57 82
497756.67 5420022.34 334.86 84
497750.04 5420023.28 335.89 71
497749.77 5420022.3 336.47 100
497749.28 5420021.49 337 78
497749.25 5420023.17 336.13 81
497750.07 5420021.65 336.78 74
497748.46 5420021.84 337.02 79
497748.47 5420021.5 337.19 76
497750.06 5420021.98 336.62 65
497748.17 5420023.31 336.31 96
497750.05 5420022.95 336.06 65
497749.77 5420021.97 336.63 93
497748.99 5420021.92 336.84 93
497748.18 5420022.99 336.48 87
497748.97 5420022.91 336.34 92
497749 5420021.26 337.17 100
497748.46 5420022.18 336.86 78
497748.19 5420022.01 336.99 93
497748.97 5420023.23 336.17 94
497748.45 5420022.84 336.51 74
497748.98 5420022.58 336.5 98
497750.05 5420022.62 336.25 71
497749.26 5420022.82 336.29 79
497749.27 5420022.17 336.66 86
497749.76 5420022.63 336.3 93
497749.76 5420023.28 335.95 93
497748.19 5420021.68 337.16 97
497749.76 5420022.96 336.09 102
497748.44 5420023.18 336.33 77
497748.98 5420022.25 336.66 98
497748.18 5420022.66 336.65 81
497748.45 5420022.5 336.68 78
497750.07 5420021.32 336.93 67
497748.2 5420021.34 337.32 102
497749.78 5420021.66 336.82 88
497748.18 5420022.33 336.82 92
497748.99 5420021.6 337.02 102
497750.06 5420022.3 336.43 66
497749.78 5420021.32 336.98 89
497749.26 5420022.5 336.48 84
497749.27 5420021.83 336.83 80
497749.79 5420018.71 336.6 90
497749.8 5420017.17 336.13 91
497748.2 5420017.73 335.75 92
497749.28 5420018.81 336.52 79
497749.28 5420016.83 335.93 70
497748.2 5420017.31 335.52 88
497749 5420018.11 336.11 93
497750.08 5420018.35 336.49 71
497748.46 5420018.31 336.09 69
497749 5420018.93 336.54 95
497750.08 5420017.94 336.27 69
497749.28 5420017.56 335.88 74
497748.46 5420017.9 335.86 74
497749.79 5420017.88 336.13 99
497749.28 5420017.97 336.1 78
497748.47 5420018.73 336.33 70
497749 5420018.52 336.32 96
497748.2 5420018.55 336.19 93
497748.19 5420016.9 335.28 93
497748.46 5420017.06 335.42 70
497748.2 5420018.96 336.39 92
497750.08 5420016.89 336.33 69
497749.8 5420016.82 336.18 94
497749 5420016.87 335.45 86
497749.28 5420018.4 336.34 82
497749.79 5420018.3 336.39 87
497749 5420017.7 335.89 88
497750.08 5420018.74 336.69 74
497750.08 5420017.23 336.27 77
497748.2 5420018.13 335.95 95
497749.28 5420017.14 335.67 46
497748.46 5420017.48 335.63 68
497749.79 5420017.49 336.02 46
497750.08 5420017.56 336.17 71
497749 5420017.28 335.66 86
497745.73 5420018.21 335.4 108
497745.73 5420017.81 335.18 106
497745.73 5420018.62 335.6 110
497758.73 5420022.84 334.15 91
497757.4 5420022.38 334.69 88
497758.24 5420023 334.16 58
497758.96 5420022.46 334.27 55
497757.62 5420022.37 334.63 76
497757.61 5420022.68 334.47 77
497757.63 5420021.71 334.97 83
497758.26 5420022.34 334.49 67
497758.73 5420023.14 333.97 88
497757.63 5420022.04 334.81 82
497758.77 5420021.69 335.08 3
497757.41 5420022.08 334.84 90
497758.04 5420023.2 334.11 89
497758.75 5420022.23 334.46 88
497758.96 5420022.79 334.12 56
497758.08 5420021.37 335.07 79
497758.24 5420023.32 334.01 67
497757.39 5420022.98 334.37 90
497758.94 5420023.44 333.78 58
497758.05 5420022.58 334.42 99
497757.6 5420023.34 334.13 80
497758.99 5420021.53 334.96 2
497758.26 5420022.02 334.64 55
497758.77 5420021.37 335.1 17
497759.34 5420023.31 333.73 80
497758.95 5420023.1 333.94 59
497757.64 5420021.39 335.16 80
497758.25 5420022.67 334.33 68
497758.74 5420022.54 334.29 88
497758.06 5420022.27 334.58 95
497757.41 5420021.78 334.99 89
497758.08 5420021.67 334.91 98
497758.75 5420021.93 334.63 77
497757.61 5420023.01 334.29 79
497758.07 5420021.98 334.73 102
497758.98 5420021.81 334.6 54
497757.42 5420021.48 335.15 94
497757.38 5420023.29 334.22 85
497758.97 5420022.13 334.43 58
497758.05 5420022.89 334.27 106
497758.72 5420023.45 333.81 99
497758.27 5420021.7 334.82 23
497757.39 5420022.69 334.53 93
497753.96 5420018.07 337.24 79
497753.16 5420016.8 336.38 80
497754.51 5420018.47 337.4 96
497752.89 5420017.52 336.71 84
497754.75 5420017.28 337.03 74
497753.16 5420017.2 336.62 72
497753.73 5420017.99 337.16 108
497754.75 5420018.75 337.16 69
497753.72 5420017.22 336.74 103
497754.51 5420017.34 336.99 90
497752.89 5420018.75 337.37 86
497753.96 5420018.79 337.34 83
497752.89 5420017.11 336.49 81
497752.89 5420018.33 337.14 89
497753.73 5420018.37 337.35 107
497753.72 5420016.85 336.53 108
497754.51 5420016.94 336.79 86
497753.17 5420018 337.02 76
497753.96 5420017.26 336.83 75
497754.76 5420017.69 337.23 76
497754.75 5420016.88 336.81 69
497754.51 5420018.79 337.26 92
497753.96 5420016.87 336.64 70
497753.17 5420017.6 336.82 76
497754.75 5420018.43 337.36 78
497754.51 5420017.73 337.19 95
497753.96 5420017.66 337.04 77
497753.17 5420018.41 337.24 79
497752.89 5420017.93 336.93 89
497753.73 5420017.61 336.95 108
497751.38 5420020.33 337.12 89
497751.61 5420020.22 337.12 61
497751.39 5420019.34 337.34 84
497752.39 5420019.82 337.15 72
497750.57 5420020.89 337.02 89
497750.85 5420020.32 337.29 73
497750.84 5420020.63 337.11 71
497750.57 5420020.57 337.18 101
497752.12 5420020.69 336.78 82
497752.13 5420020.06 337.11 97
497752.37 5420021.15 336.48 76
497752.11 5420021.02 336.62 81
497752.38 5420020.48 336.81 72
497752.4 5420019.49 337.33 80
497750.58 5420019.49 337.21 46
497751.38 5420020.03 337.31 92
497752.38 5420020.82 336.65 71
497751.61 5420020.54 336.95 57
497751.62 5420019.19 337.3 54
497750.58 5420020.25 337.37 96
497752.39 5420020.16 337 76
497751.37 5420020.65 336.97 92
497752.14 5420019.05 337.33 85
497752.14 5420019.73 337.26 94
497751.62 5420019.91 337.3 59
497750.84 5420020.95 336.95 64
497750.85 5420019.6 337.32 66
497752.12 5420020.37 336.94 91
497757.72 5420017.58 337.15 76
497759.04 5420018.93 336.12 56
497759.08 5420017.35 336.95 53
497758.37 5420017.25 337.17 77
497758.16 5420017.8 336.93 86
497757.51 5420017.32 337.33 90
497758.18 5420016.91 337.36 97
497757.73 5420017.26 337.31 72
497757.49 5420017.9 337.01 101
497757.48 5420018.79 336.57 93
497758.18 5420017.2 337.23 98
497757.48 5420018.5 336.72 98
497758.16 5420018.1 336.77 91
497758.84 5420018.05 336.64 87
497759.05 5420018.3 336.45 59
497757.5 5420017.61 337.15 94
497758.35 5420017.87 336.85 77
497758.83 5420018.64 336.34 92
497758.34 5420018.5 336.49 74
497758.86 5420017.17 337.12 83
497758.17 5420017.5 337.08 94
497758.87 5420016.87 337.25 84
497758.86 5420017.46 336.94 89
497758.14 5420018.69 336.47 98
497757.71 5420018.22 336.82 71
497759.06 5420017.97 336.61 54
497758.85 5420017.75 336.78 82
497758.37 5420016.93 337.32 84
497758.35 5420018.19 336.68 64
497759.07 5420017.66 336.79 49
497758.15 5420018.39 336.6 98
497757.49 5420018.2 336.86 97
497757.71 5420017.9 336.98 78
497758.36 5420017.56 337 77
497758.84 5420018.35 336.5 89
497759.05 5420018.6 336.29 59
497758.82 5420018.93 336.17 91
497759.08 5420017.04 337.11 54
497758.33 5420018.82 336.33 72
497757.7 5420018.52 336.64 87
497757.69 5420018.84 336.47 86
497758.24 5420020.67 333.43 32
497758.73 5420020.29 333.28 15
497759 5420021.21 335.14 8
497750.01 5420025.91 334.53 80
497749.99 5420027.24 333.82 74
497749.71 5420026.28 334.39 88
497750 5420026.57 334.18 76
497749.69 5420027.62 333.71 83
497749.71 5420025.94 334.57 88
497749.21 5420026.56 334.39 76
497749.99 5420027.57 333.58 13
497749.21 5420026.89 334.13 1
497750 5420026.25 334.36 73
497749.22 5420026.21 334.54 77
497749.7 5420026.6 334.21 100
497749.69 5420027.29 333.88 91
497748.93 5420026.25 334.6 3
497749.7 5420026.95 334.05 100
497749.22 5420025.88 334.73 80
497748.93 5420025.91 334.77 96
497750 5420026.91 334 67
497760.79 5420017.26 336.61 78
497760.98 5420018.28 336.02 61
497760.99 5420017.97 336.18 61
497759.46 5420018.22 336.45 68
497759.44 5420018.8 336.11 76
497760.32 5420018.44 336.1 69
497761.42 5420017.33 336.42 82
497761.43 5420016.74 336.74 91
497761 5420017.33 336.51 61
497759.68 5420016.86 337.09 73
497760.12 5420018.28 336.21 100
497760.33 5420018.12 336.27 55
497759.49 5420017.03 337.03 77
497760.79 5420016.97 336.77 76
497760.78 5420017.55 336.45 78
497760.36 5420016.86 336.92 51
497760.15 5420017.1 336.83 86
497759.45 5420018.51 336.26 70
497760.96 5420018.92 335.68 65
497760.99 5420017.65 336.35 66
497761.39 5420018.22 335.95 84
497760.75 5420018.73 335.82 88
497761.41 5420017.63 336.27 86
497760.76 5420018.14 336.14 84
497759.65 5420018.11 336.4 13
497760.34 5420017.48 336.59 53
497760.35 5420017.18 336.76 57
497760.1 5420018.88 335.9 96
497759.49 5420016.75 337.18 74
497760.16 5420016.81 336.98 83
497760.13 5420017.99 336.35 96
497760.34 5420017.8 336.42 57
497761.42 5420017.04 336.58 84
497760.31 5420018.75 335.93 67
497759.64 5420018.42 336.24 100
497761.01 5420017.02 336.67 73
497761.4 5420017.92 336.11 97
497760.14 5420017.4 336.66 90
497760.11 5420018.58 336.07 104
497759.64 5420018.74 336.09 78
497760.13 5420017.69 336.51 90
497761.39 5420018.51 335.79 90
497761.38 5420018.81 335.64 96
497760.77 5420017.85 336.31 77
497761.59 5420018.82 335.6 72
497759.47 5420017.91 336.55 24
497760.97 5420018.59 335.81 66
497760.76 5420018.42 335.96 81
497750.02 5420025.25 334.89 70
497750.02 5420024.92 335.07 68
497749.73 5420024.95 335.09 87
497749.72 5420025.61 334.77 88
497749.22 5420025.54 334.9 80
497748.94 5420025.24 335.12 94
497750.01 5420025.57 334.7 72
497748.93 5420025.57 334.95 90
497749.72 5420025.28 334.93 90
497749.23 5420025.2 335.1 64
497755.52 5420018 337.46 73
497755.25 5420018.06 337.51 113
497756.27 5420017.63 337.47 80
497756.78 5420017.27 337.5 81
497756.02 5420017.73 337.51 110
497754.68 5420023.4 335.17 35
497753.9 5420022.64 335.44 2
497753.12 5420022.31 335.7 74
497754.43 5420023.25 335.2 45
497754.45 5420021.6 335.78 94
497754.46 5420021.3 335.94 90
497753.13 5420021.66 336.03 76
497753.66 5420022.38 335.58 112
497753.12 5420021.99 335.88 77
497752.85 5420021.72 336.06 87
497754.45 5420021.92 335.61 91
497753.11 5420022.62 335.53 75
497754.69 5420022.33 335.32 67
497753.13 5420021.35 336.2 74
497753.89 5420023.31 335.23 29
497754.44 5420022.24 335.44 82
497753.68 5420021.45 336.01 103
497752.82 5420023.02 335.39 95
497753.1 5420023.27 335.19 79
497753.67 5420022.07 335.69 112
497753.89 5420022.96 335.28 32
497753.11 5420022.95 335.37 76
497753.92 5420021.33 336.01 76
497753.65 5420023.03 335.36 5
497752.83 5420022.7 335.57 81
497754.7 5420021.35 335.83 76
497753.91 5420021.65 335.85 81
497753.9 5420022.29 335.52 76
497753.91 5420021.97 335.68 78
497754.7 5420021.68 335.65 75
497754.68 5420023.05 335.27 20
497753.66 5420022.7 335.43 13
497752.82 5420023.35 335.21 93
497754.43 5420022.91 335.26 40
497752.84 5420022.37 335.75 89
497753.67 5420021.76 335.84 111
497754.44 5420022.56 335.34 41
497754.69 5420022 335.48 77
497752.84 5420022.04 335.93 85
497752.85 5420021.39 336.24 94
497750.8 5420023.87 335.39 61
497751.32 5420023.81 335.33 1
497750.8 5420023.56 335.56 73
497750.52 5420024.18 335.37 1
497750.52 5420023.51 335.64 96
497751.56 5420023.77 335.28 67
497750.52 5420023.84 335.45 85
497751.33 5420023.49 335.47 95
497752.07 5420023.6 335.27 90
497752.34 5420023.5 335.28 84
497749.8 5420019.93 337.27 92
497748.2 5420020.19 337.02 96
497748.47 5420021.17 337.38 84
497748.2 5420019.77 336.81 92
497750.09 5420019.97 337.35 74
497749 5420019.35 336.78 94
497749.01 5420020.59 337.4 83
497748.2 5420019.37 336.62 92
497749.79 5420020.68 337.32 97
497750.08 5420019.16 336.93 73
497748.47 5420019.15 336.53 77
497749.28 5420019.22 336.77 77
497748.47 5420020.4 337.19 76
497748.47 5420019.98 336.98 75
497750.08 5420019.57 337.14 70
497749 5420020.94 337.35 96
497748.47 5420019.56 336.77 78
497749.28 5420021.17 337.18 79
497749.8 5420019.53 337.04 91
497749 5420020.16 337.17 94
497748.2 5420020.61 337.24 93
497749.28 5420019.64 336.98 77
497749.29 5420020.83 337.35 88
497750.08 5420020.68 337.27 64
497749.79 5420020.99 337.15 100
497749 5420019.75 336.97 97
497749.8 5420019.12 336.82 92
497750.08 5420021 337.09 74
497749.29 5420020.06 337.19 80
497759.62 5420019.7 335.61 73
497760.1 5420019.18 335.76 105
497761.57 5420019.46 335.26 77
497759.6 5420020.34 335.29 77
497761.37 5420019.11 335.47 96
497760.94 5420019.88 335.17 73
497760.96 5420019.24 335.52 60
497760.74 5420019.03 335.66 78
497759.44 5420019.1 335.94 78
497760.31 5420019.07 335.76 70
497761.35 5420019.7 335.17 98
497761.58 5420019.13 335.43 74
497760.73 5420019.62 335.36 86
497759.61 5420020.03 335.45 76
497760.08 5420019.78 335.44 89
497759.62 5420019.38 335.78 71
497760.09 5420019.47 335.59 114
497759.42 5420019.7 335.64 77
497760.72 5420019.93 335.21 80
497760.3 5420019.39 335.59 70
497759.63 5420019.07 335.94 74
497760.29 5420019.72 335.45 73
497759.43 5420019.4 335.78 78
497760.28 5420020.02 335.26 65
497760.73 5420019.32 335.53 89
497761.36 5420019.41 335.32 96
497760.08 5420020.07 335.3 91
497759.41 5420020.29 335.31 77
497760.95 5420019.55 335.34 64
497759.42 5420020 335.48 80
497755.46 5420020.9 335.92 77
497755.99 5420019.28 336.65 90
497756.21 5420020.54 335.95 76
497756.95 5420020.6 335.73 61
497756.72 5420020.23 335.94 80
497756.73 5420019.63 336.28 80
497755.21 5420020.25 336.31 94
497756.97 5420019.32 336.39 59
497755.96 5420020.84 335.81 91
497755.48 5420019.93 336.44 78
497756.24 5420019.24 336.6 67
497756.98 5420019 336.57 66
497755.49 5420019.29 336.78 73
497756.96 5420019.95 336.07 60
497755.97 5420020.22 336.17 90
497755.98 5420019.91 336.34 84
497755.19 5420021.19 335.81 99
497755.22 5420019.62 336.65 92
497755.2 5420020.87 335.95 103
497756.97 5420019.63 336.23 65
497756.94 5420020.92 335.56 62
497755.47 5420020.58 336.08 73
497755.95 5420021.16 335.64 105
497755.24 5420018.99 337 89
497755.22 5420019.92 336.48 102
497756.22 5420020.21 336.1 76
497755.2 5420020.56 336.12 100
497755.99 5420019.59 336.5 87
497756.74 5420019.05 336.62 77
497756.23 5420019.89 336.28 67
497756.2 5420021.19 335.62 74
497756.71 5420020.53 335.83 83
497755.47 5420020.26 336.26 81
497756.7 5420021.13 335.51 85
497756.74 5420019.34 336.46 70
497755.23 5420019.3 336.81 93
497756.23 5420019.57 336.45 76
497756.95 5420020.27 335.9 67
497756.21 5420020.87 335.78 73
497755.97 5420020.54 336 98
497756.72 5420019.93 336.12 80
497756.7 5420020.82 335.65 78
497755.49 5420019.61 336.6 67
497753.06 5420026.19 333.66 31
497753.84 5420025.87 333.61 29
497752.76 5420026.33 333.63 15
497752.77 5420026.01 333.84 89
497753.6 5420025.81 333.78 103
497753.06 5420025.88 333.85 74
497747.38 5420021.37 337.51 106
497747.68 5420021.29 337.51 89
497753.08 5420024.9 334.34 81
497752.8 5420024.33 334.68 99
497754.64 5420024.97 333.95 68
497754.63 5420025.31 333.79 73
497753.87 5420023.9 334.66 56
497753.86 5420024.56 334.34 84
497754.65 5420024.31 334.31 62
497753.63 5420023.93 334.75 116
497752.78 5420025.68 334.02 95
497753.85 5420025.55 333.83 72
497753.07 5420025.22 334.2 82
497754.66 5420023.98 334.48 71
497753.62 5420024.55 334.43 120
497753.64 5420023.61 334.88 124
497753.08 5420024.57 334.51 82
497753.07 5420025.55 334.03 83
497753.09 5420024.24 334.68 85
497754.39 5420024.79 334.13 91
497753.62 5420024.87 334.26 99
497752.79 5420024.68 334.53 101
497752.81 5420024 334.86 102
497754.39 5420025.11 333.94 96
497753.63 5420024.24 334.57 103
497754.4 5420024.46 334.29 86
497753.86 5420024.89 334.17 74
497753.85 5420025.23 334.01 81
497752.81 5420023.69 335.07 107
497754.64 5420024.65 334.13 69
497753.09 5420023.91 334.84 77
497752.79 5420025.01 334.38 96
497753.87 5420024.23 334.5 79
497752.78 5420025.34 334.19 88
497753.6 5420025.49 333.93 122
497754.4 5420024.15 334.45 81
497754.41 5420023.82 334.59 79
497753.61 5420025.18 334.09 105
497754.38 5420025.44 333.79 85
497754.66 5420023.66 334.65 66
497753.1 5420023.6 335.03 80
497751.52 5420026.4 333.93 52
497750.48 5420026.17 334.26 92
497752.29 5420026.54 333.65 18
497750.48 5420026.5 334.11 93
497751.53 5420026.07 334.09 51
497751.53 5420025.74 334.28 56
497751.27 5420027.01 333.6 10
497752.3 5420025.87 334.03 70
497751.27 5420026.7 333.84 109
497750.47 5420026.84 333.93 90
497751.28 5420026.38 334 97
497752.03 5420025.88 334.1 89
497750.77 5420026.19 334.22 73
497750.49 5420025.84 334.44 84
497750.75 5420027.19 333.67 33
497750.76 5420026.87 333.86 76
497750.77 5420025.87 334.38 72
497750.76 5420026.53 334.03 73
497750.47 5420027.19 333.78 86
497752.02 5420026.55 333.77 85
497752.03 5420026.21 333.93 90
497751.52 5420026.73 333.77 54
497751.29 5420025.73 334.32 84
497752.3 5420026.2 333.86 74
497751.28 5420026.05 334.15 98
497752.88 5420019.76 337.09 83
497753.72 5420019.32 337.13 109
497753.93 5420020.7 336.35 83
497753.69 5420020.54 336.49 108
497754.71 5420021.02 336 72
497754.74 5420019.08 337.01 78
497753.93 5420020.38 336.51 82
497752.87 5420020.41 336.74 92
497753.16 5420019.76 337.04 75
497753.92 5420021.01 336.17 82
497753.72 5420019.04 337.3 108
497754.46 5420020.97 336.09 85
497754.49 5420019.41 336.93 60
497752.86 5420021.06 336.42 86
497753.14 5420020.71 336.53 79
497753.95 5420019.43 337.02 85
497754.5 5420019.1 337.09 79
497753.17 5420019.13 337.37 85
497754.72 5420020.38 336.34 72
497753.15 5420020.4 336.68 77
497753.94 5420020.05 336.68 71
497753.7 5420020.23 336.65 108
497754.48 5420020.35 336.41 89
497754.48 5420020.03 336.59 89
497754.73 5420019.72 336.69 66
497754.74 5420019.4 336.87 74
497753.71 5420019.63 336.99 73
497753.71 5420019.94 336.82 109
497753.16 5420019.45 337.2 83
497753.15 5420020.08 336.87 72
497754.71 5420020.69 336.18 72
497753.96 5420019.11 337.2 76
497754.47 5420020.66 336.27 86
497752.88 5420020.09 336.92 88
497752.86 5420020.74 336.58 90
497753.94 5420019.73 336.85 79
497753.69 5420020.85 336.33 106
497754.49 5420019.72 336.77 87
497753.14 5420021.03 336.35 79
497754.73 5420020.05 336.52 75
497752.89 5420019.44 337.26 93
497760.65 5420022.63 333.77 83
497760.02 5420022.49 334.03 95
497760.88 5420022.47 333.83 64
497759.35 5420023.01 333.9 77
497759.38 5420021.49 334.67 41
497759.54 5420022.92 333.92 74
497760.24 5420021.95 334.26 59
497760.02 5420022.18 334.19 96
497761.51 5420021.7 334.05 85
497759.36 5420022.41 334.22 75
497760.22 5420022.93 333.74 57
497761.29 5420022.12 333.92 91
497760.89 5420022.15 334 64
497760 5420023.1 333.72 71
497759.58 5420021.29 334.76 82
497760.67 5420021.73 334.27 78
497761.5 5420022.35 333.73 78
497759.56 5420021.95 334.41 77
497760.05 5420021.27 334.63 96
497760.25 5420021.64 334.42 56
497760.03 5420021.87 334.31 95
497761.28 5420022.42 333.77 82
497760.04 5420021.57 334.47 98
497760.89 5420021.81 334.16 62
497759.54 5420023.25 333.75 73
497761.3 5420021.81 334.08 100
497760.01 5420022.81 333.93 92
497761.31 5420021.5 334.23 103
497761.51 5420022.03 333.93 72
497760.67 5420022.03 334.1 86
497759.57 5420021.62 334.58 87
497760.68 5420021.44 334.44 81
497761.52 5420021.38 334.27 77
497759.56 5420022.28 334.25 74
497760.25 5420021.31 334.59 62
497760.64 5420022.93 333.59 2
497760.22 5420022.61 333.91 58
497759.37 5420022.1 334.4 75
497760.9 5420021.5 334.33 66
497760.87 5420022.78 333.62 23
497759.35 5420022.71 334.06 74
497760.23 5420022.28 334.09 62
497760.66 5420022.33 333.95 77
497759.37 5420021.8 334.54 73
497759.55 5420022.59 334.1 74
497757.37 5420023.61 334.07 92
497758.04 5420023.49 333.96 97
497758.23 5420023.65 333.83 64
497757.36 5420024.21 333.76 84
497757.59 5420023.67 333.95 73
497758.22 5420023.97 333.6 6
497758.71 5420023.74 333.62 9
497757.59 5420023.99 333.8 76
497757.37 5420023.9 333.9 93
497758.03 5420023.8 333.78 93
497750.76 5420023.79 333.26 6
497752.05 5420024.57 334.76 90
497750.78 5420025.19 334.71 35
497752.05 5420024.89 334.57 89
497751.56 5420024.1 335.11 4
497751.52 5420024.06 333.28 5
497752.04 5420025.55 334.24 85
497751.28 5420023.72 333.25 18
497751.29 5420025.41 334.48 98
497750.77 5420025.53 334.55 74
497750.49 5420025.5 334.61 92
497752.32 5420024.51 334.73 81
497752.06 5420023.92 335.12 89
497750.5 5420025.16 334.79 81
497750.76 5420024.16 333.28 8
497752.33 5420024.17 334.93 68
497752.32 5420024.85 334.56 77
497751.54 5420025.08 334.6 55
497752.31 5420025.52 334.2 75
497750.51 5420024.5 335.11 58
497752.04 5420025.22 334.4 95
497750.5 5420024.84 334.95 87
497752.06 5420024.24 334.91 95
497752.33 5420023.83 335.11 74
497751.54 5420025.41 334.43 52
497751.3 5420025.09 334.65 84
497752.31 5420025.18 334.38 72
497751.28 5420024.08 333.26 24
497756.76 5420018.15 337.03 87
497757.01 5420017.08 337.41 51
497756.99 5420018.37 336.88 67
497757 5420017.73 337.21 66
497756.75 5420018.75 336.77 77
497756.02 5420016.95 337.12 96
497755.52 5420017.21 337.15 83
497756.77 5420017.57 337.36 82
497755.25 5420018.36 337.31 99
497756 5420018.65 336.98 96
497755.51 5420018.64 337.13 70
497756.25 5420018.6 336.95 72
497756.02 5420018.04 337.32 98
497756.78 5420016.89 337.28 74
497755.25 5420017.65 337.31 103
497756.26 5420018.28 337.13 70
497756.24 5420018.91 336.77 67
497756.26 5420017.96 337.31 74
497755.24 5420018.68 337.15 97
497756.27 5420016.84 337.13 82
497755.25 5420017.27 337.12 99
497756.01 5420018.35 337.14 94
497756 5420018.97 336.82 95
497756.75 5420018.45 336.9 83
497757.01 5420017.43 337.37 65
497757 5420018.05 337.05 67
497756.02 5420017.35 337.34 90
497755.5 5420018.96 336.94 70
497755.51 5420016.8 336.93 81
497755.52 5420017.62 337.37 75
497756.27 5420017.25 337.35 81
497756.98 5420018.68 336.71 55
497755.51 5420018.31 337.27 76
497755.25 5420016.86 336.88 96
497756.77 5420017.86 337.22 83
497754.42 5420023.59 335.18 29
497753.89 5420023.67 335.22 4
497747.67 5420017.52 335.47 80
497746.83 5420017.32 335.2 74
497747.67 5420017.93 335.71 69
497747.67 5420017.1 335.26 74
497747.38 5420018.56 335.98 101
497746.84 5420018.53 335.83 71
497746 5420018.69 335.73 67
497747.67 5420018.77 336.15 79
497746.53 5420018.92 335.96 76
497746.84 5420017.73 335.43 70
497747.67 5420018.35 335.94 75
497746.53 5420017.69 335.31 87
497746 5420018.29 335.51 68
497747.38 5420017.36 335.36 91
497746.84 5420018.13 335.62 65
497746.84 5420018.93 336.04 67
497746.53 5420018.51 335.74 87
497747.38 5420018.95 336.17 99
497745.99 5420017.87 335.29 69
497747.38 5420017.76 335.57 98
497747.38 5420018.16 335.76 103
497746.53 5420018.1 335.52 86
497755.93 5420022.11 335.18 92
497755.46 5420021.23 335.73 80
497755.17 5420022.15 335.32 99
497755.18 5420021.83 335.47 100
497755.18 5420021.51 335.63 100
497756.93 5420021.57 335.25 60
497756.69 5420021.43 335.34 83
497755.44 5420022.22 335.22 83
497756.2 5420021.52 335.44 71
497755.45 5420021.88 335.39 77
497756.19 5420021.85 335.27 76
497755.45 5420021.56 335.55 83
497756.68 5420021.73 335.18 83
497755.94 5420021.8 335.32 105
497755.95 5420021.48 335.49 99
497756.94 5420021.24 335.4 66
497746.53 5420019.76 336.4 81
497746.84 5420020.14 336.64 72
497747.38 5420020.15 336.8 96
497746.53 5420019.34 336.16 81
497746.84 5420019.34 336.27 69
497747.67 5420019.6 336.6 75
497746 5420019.1 335.93 67
497746.84 5420020.54 336.88 67
497746.84 5420019.74 336.47 58
497747.68 5420020.85 337.23 75
497747.38 5420020.97 337.23 89
497747.38 5420019.75 336.6 95
497747.67 5420019.18 336.37 79
497747.38 5420020.56 337 92
497747.68 5420020.03 336.83 77
497747.38 5420019.36 336.4 89
497746 5420019.51 336.12 4
497746.85 5420020.95 337.11 65
497747.68 5420020.43 337.01 80
497746.54 5420020.58 336.83 73
497746.54 5420020.16 336.62 78
497747.67 5420022.28 336.98 74
497747.38 5420021.69 337.33 99
497747.66 5420022.61 336.82 77
497747.37 5420022.02 337.18 92
497747.37 5420022.64 336.8 1
497747.66 5420023.27 336.44 11
497747.37 5420022.33 336.99 101
497747.66 5420022.94 336.64 81
497747.68 5420021.6 337.33 70
497746.85 5420021.36 337.33 59
497747.67 5420021.94 337.17 76
497750.59 5420019.35 338.14 82
497751.39 5420019.73 337.51 119
497752.14 5420019.42 337.45 85
497750.85 5420020 337.47 71
497751.62 5420019.6 337.5 73
497752.41 5420019.18 337.52 70
497750.87 5420019.07 338.14 54
497750.58 5420019.91 337.47 67
497751.63 5420021.17 338.14 52
497750.87 5420019.44 338.15 60
497754.76 5420018.12 337.52 57
497753.17 5420018.8 337.47 67
497753.97 5420018.48 337.55 62
497753.73 5420018.74 337.52 115
497754.52 5420018.12 337.42 87
497745.99 5420017.46 335.08 69
497746.53 5420017.27 335.09 85
497745.99 5420017.05 334.86 65
497747.37 5420016.96 335.13 95
497746.53 5420016.87 334.89 87
497746.83 5420016.93 335 69
497748.9 5420031.55 334.77 95
497753.64 5420023.31 335.06 105
497754.68 5420022.67 335.16 69
497750.09 5420020.36 337.49 73
497748.2 5420021.02 337.51 94
497749.8 5420020.35 337.51 100
497748.47 5420020.82 337.42 57
497749.29 5420020.48 337.44 58
497757.52 5420017.03 337.53 110
497757.73 5420016.97 337.51 86
497752.89 5420019.13 337.45 83
497758.28 5420021.42 335.21 2
497762.1 5420015.79 337.06 86
497762.71 5420016.24 336.69 96
497763.51 5420015.86 336.74 60
497761.67 5420015.66 337.25 70
497762.92 5420015.79 336.88 54
497762.7 5420016.54 336.56 90
497763.34 5420015.31 337.03 101
497762.12 5420014.54 337.27 90
497763.51 5420015.54 336.88 56
497761.67 5420014.59 337.17 72
497761.68 5420015 337.38 73
497762.28 5420015.94 336.97 73
497762.31 5420014.63 337.34 81
497762.9 5420016.41 336.56 56
497762.94 5420015.16 337.21 58
497762.72 5420015.97 336.88 91
497762.29 5420015.63 337.15 74
497762.74 5420015.08 337.33 80
497761.64 5420016.61 336.74 79
497762.08 5420016.39 336.78 94
497762.91 5420016.1 336.73 61
497762.28 5420016.25 336.8 75
497762.94 5420014.85 337.38 65
497762.73 5420015.37 337.14 79
497762.09 5420016.09 336.92 96
497762.93 5420015.47 337.04 55
497762.12 5420015.22 337.38 97
497763.31 5420016.48 336.45 84
497761.66 5420015.98 337.08 68
497763.5 5420016.17 336.56 66
497762.72 5420015.67 337.03 86
497763.32 5420016.2 336.61 89
497761.65 5420016.29 336.93 76
497762.11 5420015.51 337.22 95
497763.49 5420016.48 336.41 60
497762.27 5420016.56 336.62 79
497762.08 5420016.69 336.62 91
497762.3 5420015.31 337.31 74
497763.35 5420015.02 337.19 2
497763.33 5420015.6 336.88 94
497763.32 5420015.9 336.75 90
497762.3 5420013.85 336.93 78
497762.29 5420013.04 336.49 73
497761.66 5420013.01 336.33 68
497762.74 5420014.07 337.16 82
497762.74 5420013.7 336.98 18
497762.3 5420013.44 336.72 74
497762.11 5420013.79 336.86 91
497761.66 5420013.81 336.77 77
497762.1 5420012.68 336.28 89
497762.29 5420012.64 336.3 22
497761.66 5420013.41 336.52 73
497761.67 5420014.21 336.97 74
497762.11 5420013.06 336.49 91
497762.1 5420012.32 336.11 75
497762.3 5420014.24 337.15 74
497762.11 5420014.17 337.07 92
497762.11 5420013.43 336.67 96
497761.65 5420012.62 336.12 70
497762.75 5420014.44 337.33 85
497761.64 5420011.03 335.26 1
497761.65 5420011.83 335.71 70
497761.64 5420011.43 335.48 78
497761.65 5420012.22 335.91 73
497763.92 5420016.52 336.28 112
497762.31 5420015.02 337.51 88
497762.75 5420014.81 337.51 95
497762.12 5420014.91 337.51 84
497761.67 5420015.36 337.43 78
497762.95 5420014.52 337.45 46
497759.5 5420014.68 336.7 80
497760.38 5420015.17 337.16 67
497759.5 5420015.05 336.92 75
497761.46 5420015.57 337.36 87
497761.02 5420016.7 336.85 62
497761.46 5420014.54 337.13 94
497760.82 5420014.74 337.03 81
497759.69 5420014.68 336.76 77
497760.81 5420016.39 337.06 80
497759.5 5420016.45 337.31 86
497759.69 5420015.48 337.18 80
497760.17 5420016.22 337.29 86
497760.82 5420015.8 337.38 90
497759.5 5420015.8 337.31 82
497760.18 5420015.58 337.33 87
497759.5 5420015.42 337.13 79
497760.38 5420014.78 336.98 68
497761.04 5420015.04 337.27 61
497760.17 5420015.2 337.14 97
497761.44 5420016.44 336.88 95
497761.45 5420016.16 337.04 88
497760.37 5420016.24 337.24 57
497760.38 5420015.57 337.39 60
497760.82 5420016.09 337.22 87
497761.03 5420016.08 337.18 65
497759.69 5420015.07 336.97 82
497759.69 5420016.54 337.25 72
497760.17 5420014.84 336.97 89
497760.38 5420015.92 337.4 53
497761.45 5420015.86 337.17 90
497761.04 5420015.76 337.33 64
497760.8 5420016.67 336.92 82
497761.04 5420014.65 337.04 62
497760.37 5420016.54 337.08 49
497760.83 5420015.12 337.25 81
497760.16 5420016.52 337.14 91
497761.03 5420016.38 337 62
497759.69 5420016.22 337.4 74
497761.47 5420014.91 337.3 92
497759.69 5420015.86 337.37 68
497762.66 5420018.01 335.79 88
497762.87 5420017.67 335.89 61
497762.03 5420018.46 335.69 94
497763.27 5420017.66 335.82 89
497761.63 5420017.24 336.45 75
497762.65 5420018.31 335.64 87
497762.68 5420017.13 336.27 92
497762.64 5420018.6 335.47 95
497763.25 5420018.55 335.35 101
497763.26 5420018.26 335.51 84
497761.62 5420017.55 336.25 67
497762.06 5420017.27 336.31 100
497761.6 5420018.18 335.93 74
497762.84 5420018.62 335.41 58
497763.43 5420018.69 335.25 60
497763.45 5420018.06 335.58 65
497763.29 5420017.07 336.13 84
497762.04 5420018.15 335.84 103
497762.02 5420018.76 335.52 93
497763.48 5420016.79 336.22 60
497762.23 5420018.15 335.81 76
497762.84 5420018.94 335.25 61
497761.6 5420018.5 335.76 78
497762.25 5420017.19 336.32 74
497762.9 5420016.73 336.41 57
497762.85 5420018.3 335.59 61
497761.61 5420017.87 336.09 71
497763.46 5420017.43 335.9 60
497763.28 5420017.36 335.97 84
497762.07 5420016.97 336.47 87
497763.44 5420018.39 335.43 65
497762.69 5420016.84 336.4 90
497762.67 5420017.72 335.94 95
497762.24 5420017.82 335.97 83
497762.26 5420016.88 336.48 77
497762.63 5420018.89 335.3 10
497762.04 5420017.86 335.98 101
497762.21 5420018.77 335.46 85
497763.3 5420016.78 336.31 86
497762.24 5420017.51 336.14 84
497761.63 5420016.92 336.6 82
497762.86 5420017.98 335.75 60
497762.05 5420017.56 336.13 99
497762.22 5420018.46 335.65 78
497762.88 5420017.36 336.09 59
497762.68 5420017.42 336.1 90
497763.24 5420018.84 335.17 91
497763.27 5420017.95 335.66 93
497763.45 5420017.74 335.73 60
497762.89 5420017.04 336.25 57
497763.47 5420017.11 336.08 50
497761.47 5420015.29 337.52 110
497761.05 5420015.45 337.51 66
497760.83 5420015.5 337.51 71
497759.51 5420016.17 337.53 83
497760.18 5420015.94 337.49 96
497761.01 5420011.07 335.16 54
497761.43 5420010.83 335.13 93
497759.66 5420011.51 335.08 80
497759.47 5420010.23 334.37 73
497759.65 5420010.72 334.64 79
497761 5420010.68 334.94 56
497759.47 5420011.34 334.95 75
497759.48 5420011.71 335.14 79
497760.79 5420010.32 334.72 79
497759.65 5420010.33 334.46 74
497760.34 5420010.81 334.87 56
497760.79 5420011.05 335.09 72
497760.33 5420010.01 334.44 57
497759.47 5420010.61 334.58 74
497760.79 5420010.68 334.91 73
497761 5420010.29 334.77 60
497760.14 5420010.38 334.59 85
497760.14 5420011.12 334.99 85
497760.14 5420010.76 334.8 89
497759.66 5420011.12 334.88 77
497760.34 5420011.2 335.09 56
497760.14 5420010.02 334.42 79
497759.47 5420010.97 334.75 80
497760.34 5420010.41 334.65 54
497757.51 5420015.2 336.67 94
497757.72 5420014.99 336.53 60
497757.73 5420016.17 337.11 74
497757.51 5420016.67 337.33 88
497758.18 5420015.47 336.81 102
497757.72 5420014.61 336.45 80
497758.18 5420015.1 336.65 99
497757.51 5420015.55 336.72 27
497758.17 5420014.74 336.44 104
497759.09 5420016.72 337.3 51
497758.37 5420015.81 337.05 80
497757.72 5420015.37 336.67 27
497757.72 5420015.76 336.89 76
497759.09 5420016.04 337.34 58
497757.51 5420016.29 337.12 90
497758.18 5420015.85 337.03 102
497758.36 5420014.63 336.43 80
497758.18 5420016.22 337.25 94
497757.51 5420014.52 336.51 92
497758.37 5420015.42 336.83 79
497758.38 5420016.22 337.26 79
497759.09 5420015.25 336.95 64
497758.87 5420014.77 336.63 84
497758.37 5420015.03 336.65 78
497758.88 5420016.58 337.38 88
497757.51 5420014.86 336.6 93
497757.73 5420016.56 337.3 77
497757.51 5420015.91 336.91 86
497759.09 5420014.85 336.71 76
497757.51 5420013.48 336.29 99
497758.86 5420013.65 336.01 85
497759.07 5420012.46 335.45 76
497758.36 5420013.84 336.02 65
497759.08 5420014.45 336.5 78
497758.87 5420014.4 336.43 90
497758.17 5420013.98 336.03 9
497758.86 5420013.28 335.82 86
497758.16 5420012.51 335.27 87
497757.51 5420013.14 336.19 95
497757.72 5420013.15 336.1 69
497758.87 5420014.02 336.23 88
497758.36 5420014.23 336.22 75
497758.35 5420013.05 335.62 77
497758.86 5420012.91 335.64 91
497757.52 5420012.46 336.04 100
497758.17 5420013.65 335.98 103
497758.86 5420012.55 335.46 87
497759.08 5420014.05 336.3 76
497757.51 5420013.83 336.35 97
497757.72 5420013.51 336.17 83
497757.72 5420013.88 336.27 72
497758.17 5420013.31 335.93 62
497757.72 5420014.25 336.33 83
497757.51 5420012.81 336.14 98
497758.16 5420012.87 335.46 84
497758.36 5420013.44 335.81 79
497757.51 5420014.18 336.44 95
497758.17 5420014.36 336.25 95
497757.72 5420012.42 335.94 76
497759.07 5420012.86 335.66 80
497759.08 5420013.65 336.1 74
497758.35 5420012.65 335.37 76
497759.07 5420013.26 335.87 75
497757.72 5420012.78 336 83
497752.39 5420015.82 335.67 68
497751.39 5420014.93 336.13 87
497750.86 5420015.5 336.52 73
497750.59 5420016.51 336.69 95
497751.62 5420015.02 336.03 54
497750.6 5420015.06 336.6 87
497752.13 5420015.53 335.77 14
497751.62 5420015.39 336.11 57
497751.62 5420016.5 336.36 55
497750.86 5420016.64 336.84 82
497752.38 5420014.99 335.25 67
497751.62 5420015.76 336.17 61
497752.39 5420016.23 335.9 6
497751.62 5420014.65 335.94 45
497750.86 5420015.14 336.44 68
497750.59 5420015.82 336.76 80
497751.39 5420016.01 336.38 87
497750.59 5420015.43 336.66 88
497750.86 5420015.88 336.63 66
497752.13 5420016.65 336.08 14
497752.13 5420015.04 335.21 89
497752.13 5420016.29 336.05 88
497751.39 5420015.65 336.29 87
497751.39 5420016.38 336.46 92
497752.39 5420016.65 336.14 66
497751.62 5420016.13 336.27 56
497750.86 5420016.26 336.7 79
497752.14 5420015.91 335.97 86
497751.39 5420015.28 336.21 91
497750.59 5420016.18 336.84 97
497750.86 5420014.76 336.35 77
497751.39 5420014.55 336.01 97
497752.39 5420015.41 335.46 68
497750.6 5420014.69 336.49 83
497753.14 5420012.43 334.08 73
497752.87 5420012.65 334.11 81
497753.94 5420013.67 334.89 71
497752.88 5420014.27 334.97 88
497752.87 5420013.06 334.37 86
497753.7 5420012.29 334.12 101
497753.14 5420013.62 334.7 77
497753.93 5420012.88 334.46 70
497753.14 5420012.82 334.27 75
497754.49 5420013.01 334.69 85
497753.94 5420014.07 335.09 74
497753.93 5420012.49 334.29 71
497752.88 5420013.87 334.78 84
497754.73 5420013.61 335.05 73
497753.15 5420014.02 334.91 73
497752.87 5420013.46 334.56 84
497753.93 5420013.29 334.68 68
497752.87 5420012.25 333.95 81
497753.15 5420014.41 335.14 78
497753.71 5420013.8 334.91 104
497753.71 5420013.42 334.72 109
497753.71 5420012.66 334.3 100
497753.71 5420013.04 334.51 103
497754.5 5420013.8 335.07 85
497754.49 5420013.4 334.88 83
497754.49 5420012.62 334.45 54
497753.14 5420013.21 334.47 70
497753.71 5420014.17 335.13 107
497757.01 5420013.39 336.53 86
497757.02 5420013.02 336.45 86
497756.04 5420012.72 336.68 98
497756.79 5420013.14 336.61 89
497756.79 5420014.17 336.82 86
497755.26 5420012.91 336.25 87
497755.25 5420014.21 335.93 91
497756.03 5420014.02 336.38 91
497756.79 5420012.47 336.46 87
497755.51 5420014.45 336.01 74
497757.01 5420014.12 336.69 82
497756.28 5420013.53 336.65 90
497755.27 5420012.59 336.32 86
497756.02 5420014.35 336.3 92
497756.28 5420012.88 336.82 92
497755.26 5420013.56 336.09 91
497755.53 5420012.44 336.51 75
497757.02 5420012.3 336.28 78
497756.04 5420013.05 336.6 93
497756.79 5420013.49 336.67 87
497756.27 5420013.87 336.56 82
497755.51 5420014.11 336.09 73
497755.26 5420013.23 336.15 89
497755.27 5420012.26 336.38 100
497756.05 5420012.42 336.82 110
497756.78 5420014.46 336.67 101
497755.52 5420013.45 336.26 71
497755.51 5420013.77 336.16 76
497756.79 5420012.81 336.52 90
497757.01 5420013.75 336.6 86
497756.79 5420013.84 336.8 80
497756.03 5420013.69 336.45 97
497756.27 5420014.2 336.48 72
497755.53 5420012.77 336.42 79
497756.28 5420013.2 336.75 66
497756.28 5420012.49 336.7 79
497755.52 5420013.11 336.33 73
497756.04 5420013.37 336.52 87
497755.25 5420013.88 336 96
497757.02 5420012.65 336.36 80
497747.37 5420015.77 334.49 94
497746.83 5420016.53 334.79 73
497747.66 5420016.26 334.83 79
497747.37 5420016.56 334.92 96
497747.66 5420015.02 334.18 79
497746.83 5420015.32 334.14 66
497746.53 5420016.05 334.46 88
497747.66 5420016.68 335.05 77
497747.37 5420014.97 334.09 84
497746.83 5420015.73 334.38 68
497747.37 5420014.56 333.86 90
497746.53 5420014.81 333.79 83
497746.83 5420014.53 333.73 57
497747.66 5420015.86 334.62 74
497746.83 5420016.12 334.57 66
497745.99 5420016.22 334.43 67
497745.99 5420014.99 333.78 62
497747.37 5420015.36 334.28 95
497745.99 5420016.63 334.64 71
497746.53 5420015.64 334.24 81
497747.66 5420014.59 333.94 74
497746.53 5420015.23 334.03 76
497745.99 5420015.82 334.22 74
497746.83 5420014.92 333.95 69
497745.99 5420015.41 334.02 71
497747.66 5420015.44 334.4 78
497747.37 5420016.16 334.71 89
497746.53 5420016.46 334.66 92
497759.48 5420012.82 335.73 73
497760.81 5420013.27 336.28 78
497759.49 5420013.2 335.93 76
497761.03 5420013.85 336.65 64
497760.16 5420012.98 335.99 90
497761.45 5420013.05 336.32 89
497760.15 5420012.25 335.6 90
497760.17 5420014.1 336.58 91
497760.16 5420013.72 336.37 91
497759.67 5420012.3 335.5 76
497761.46 5420014.17 336.9 88
497759.68 5420013.49 336.13 74
497761.02 5420012.26 335.79 61
497761.46 5420013.8 336.71 94
497759.49 5420014.31 336.5 76
497761.04 5420014.24 336.82 58
497760.17 5420014.47 336.78 84
497759.67 5420013.09 335.9 80
497761.44 5420012.31 335.9 84
497760.36 5420012.78 335.92 51
497761.46 5420013.43 336.52 90
497761.03 5420013.44 336.42 55
497760.36 5420013.58 336.32 61
497760.81 5420013.63 336.45 74
497760.37 5420013.99 336.55 59
497760.82 5420014 336.66 80
497760.37 5420014.38 336.78 59
497759.67 5420012.7 335.71 75
497760.16 5420012.61 335.78 95
497761.02 5420013.05 336.19 56
497760.82 5420014.37 336.85 78
497759.68 5420014.28 336.54 79
497760.81 5420012.88 336.06 73
497759.49 5420013.56 336.12 73
497761.02 5420012.65 336 57
497760.16 5420013.35 336.17 88
497761.45 5420012.69 336.13 88
497760.81 5420012.53 335.88 76
497760.36 5420013.18 336.11 58
497759.68 5420013.88 336.33 81
497759.48 5420012.45 335.53 80
497760.35 5420012.39 335.7 56
497759.49 5420013.93 336.31 78
497754.5 5420014.97 335.7 82
497753.16 5420016.4 336.16 71
497754.75 5420016.05 336.34 67
497753.72 5420016.08 336.14 98
497754.51 5420016.56 336.59 92
497754.75 5420016.47 336.61 72
497753.15 5420015.21 335.53 74
497752.88 5420015.49 335.63 85
497752.88 5420014.67 335.21 89
497753.72 5420015.32 335.73 100
497752.89 5420016.3 336.06 84
497753.72 5420015.69 335.93 103
497752.88 5420015.08 335.43 87
497754.5 5420014.58 335.49 86
497753.71 5420014.55 335.31 101
497754.74 5420015.25 335.95 70
497753.95 5420015.27 335.76 71
497753.95 5420016.47 336.4 75
497753.72 5420014.94 335.53 103
497753.94 5420014.48 335.32 71
497753.94 5420014.88 335.57 75
497754.74 5420014.83 335.69 70
497753.15 5420014.8 335.31 75
497753.95 5420015.67 335.97 73
497754.51 5420016.16 336.36 89
497754.5 5420015.37 335.93 83
497754.5 5420015.76 336.14 84
497752.88 5420015.89 335.85 89
497753.16 5420015.59 335.73 71
497754.74 5420015.65 336.13 68
497753.72 5420016.46 336.33 102
497753.16 5420016 335.95 76
497752.89 5420016.71 336.26 93
497753.95 5420016.06 336.17 73
497749.28 5420016.48 335.99 78
497749.82 5420014.78 336.67 102
497750.1 5420014.49 336.7 74
497749 5420016.47 335.24 62
497749.8 5420016.48 336.28 92
497749.29 5420015.45 336.27 76
497749.81 5420015.46 336.5 98
497748.48 5420015 335.95 72
497750.1 5420015.21 336.76 71
497750.1 5420014.88 336.85 84
497749.02 5420014.9 336.25 96
497749.29 5420016.14 336.07 81
497749.82 5420015.13 336.59 98
497750.1 5420015.54 336.67 75
497748.22 5420014.55 335.93 53
497750.09 5420015.88 336.59 76
497748.46 5420016.65 335.2 69
497749.3 5420015.1 336.33 86
497750.09 5420016.55 336.43 65
497749.81 5420016.13 336.33 95
497749.81 5420015.8 336.45 99
497749.02 5420014.56 336.31 94
497749.01 5420015.58 336.08 94
497749.02 5420015.24 336.16 103
497750.09 5420016.22 336.5 69
497749.3 5420014.76 336.42 82
497749.29 5420015.79 336.16 84
497749.01 5420015.91 335.99 96
497748.48 5420014.66 336.02 73
497749.01 5420016.26 335.91 80
497755.51 5420016.39 336.7 78
497756.25 5420015.19 336.17 2
497756.77 5420015.77 336.68 76
497756.01 5420015.37 336.26 91
497757.01 5420014.82 336.71 74
497757.01 5420016.29 336.98 74
497756.02 5420016.17 336.67 88
497757 5420015.47 336.5 3
497756.77 5420016.52 337.08 84
497755.24 5420014.5 335.67 32
497756.26 5420015.62 336.46 67
497756.26 5420016.03 336.67 70
497756.01 5420014.99 336.14 65
