748       
497809.45 5420005.15 335.95 117
497809.45 5420004.87 336.12 115
497809.44 5420005.46 335.82 101
497808.23 5420005.53 336.07 156
497809.1 5420004.98 336.13 147
497809.09 5420005.58 335.83 164
497809.09 5420005.28 335.98 155
497814.49 5420000.13 337.46 157
497814.18 5419999.11 338.05 185
497814.16 5420000.71 337.23 182
497815.36 5419999.82 337.41 221
497814.51 5419999 338.05 139
497814.17 5419999.63 337.76 188
497815.35 5420000.41 337.11 193
497815.74 5420000.73 336.85 149
497814.48 5420001 337.05 88
497814.17 5419999.9 337.63 170
497815.33 5420000.98 336.79 168
497814.5 5419999.85 337.61 155
497814.15 5420000.99 337.15 77
497815.75 5420000.44 337.04 128
497814.5 5419999.28 337.9 131
497814.5 5419999.57 337.76 141
497814.48 5420000.41 337.27 139
497815.34 5420000.69 336.94 190
497814.48 5420000.7 337.16 138
497815.36 5419999.54 337.59 102
497815.35 5420000.12 337.27 195
497814.18 5419999.37 337.94 182
497815.74 5420001.03 336.69 141
497814.16 5420000.44 337.36 165
497814.16 5420000.17 337.51 148
497815.31 5420002.47 336.05 138
497815.71 5420002.8 335.77 133
497815.72 5420002.21 336.09 130
497815.72 5420002.49 335.91 132
497815.71 5420003.09 335.58 117
497805.69 5419997.45 337.27 104
497805.35 5419997.48 337.24 121
497806.63 5419997.03 337.29 121
497805.72 5419998.19 337.67 85
497805.33 5419997.12 337.02 112
497806.92 5419996.85 337.23 113
497805.67 5419997.08 337.06 86
497805.37 5419998.18 337.59 128
497805.66 5419996.72 336.89 97
497806.95 5419997.6 337.62 93
497805.73 5419998.56 337.85 96
497805.32 5419996.78 336.83 98
497807 5419998.75 338.28 96
497806.69 5419998.77 338.2 110
497806.66 5419998.07 337.83 115
497806.65 5419997.71 337.61 126
497806.61 5419996.67 337.06 109
497806.64 5419997.36 337.43 110
497806.99 5419998.38 338.07 100
497805.38 5419998.53 337.82 124
497805.7 5419997.82 337.47 101
497806.68 5419998.43 338.03 98
497806.97 5419997.99 337.83 93
497805.36 5419997.83 337.4 116
497806.94 5419997.23 337.46 106
497807.9 5420004.22 336.81 171
497807.91 5420003.93 336.97 174
497807.9 5420004.52 336.65 164
497809.1 5420004.69 336.28 168
497808.26 5420003.73 337 136
497807.88 5420005.39 336.22 187
497807.89 5420004.82 336.53 184
497807.92 5420003.37 337.27 155
497808.23 5420005.22 336.22 164
497808.25 5420004.62 336.55 153
497809.12 5420003.81 336.74 176
497809.11 5420004.39 336.43 197
497809.48 5420003.68 336.71 121
497808.24 5420004.92 336.37 156
497809.47 5420003.98 336.58 120
497807.91 5420003.65 337.09 195
497809.48 5420003.38 336.88 114
497808.26 5420004.04 336.85 133
497808.27 5420003.42 337.12 139
497809.46 5420004.56 336.27 113
497809.12 5420004.1 336.59 181
497807.88 5420005.1 336.36 195
497809.46 5420004.26 336.42 114
497809.13 5420003.51 336.88 200
497808.25 5420004.34 336.7 171
497814.07 5420005.07 334.94 166
497812.75 5420005.28 335.12 176
497811.92 5420004.51 335.72 50
497813.15 5420005.31 335.03 114
497813.16 5420004.4 335.51 10
497814.08 5420004.78 335.07 186
497813.15 5420005.02 335.21 126
497812.74 5420005.58 335 156
497814.11 5420003.74 335.84 121
497811.91 5420005.12 335.41 130
497812.75 5420004.99 335.28 145
497812.77 5420004.43 335.73 67
497812.76 5420004.7 335.47 37
497811.92 5420004.82 335.55 134
497813.16 5420004.7 335.33 122
497814.09 5420004.24 335.37 160
497811.91 5420005.42 335.22 136
497814.08 5420004.51 335.22 176
497814.07 5420005.34 334.78 165
497814.09 5420003.96 335.53 34
497810.32 5420006.12 335.22 176
497810.32 5420005.83 335.39 178
497811.52 5420006.23 334.93 164
497811.51 5420006.53 334.75 146
497810.29 5420007.33 334.65 118
497811.53 5420005.93 335.08 153
497810.66 5420007.21 334.51 14
497810.67 5420006.91 334.73 149
497810.3 5420006.72 334.94 156
497810.68 5420006.3 335.06 156
497811.89 5420006.35 334.74 118
497811.53 5420005.62 335.23 163
497810.31 5420006.43 335.1 170
497811.88 5420006.65 334.53 30
497810.69 5420006 335.22 142
497810.67 5420006.6 334.9 144
497810.3 5420007.03 334.8 147
497811.5 5420006.83 334.55 52
497810.69 5420005.69 335.4 153
497811.62 5420002.4 337.26 162
497811.61 5420002.71 337.16 152
497810.77 5420001.5 337.59 147
497810.76 5420002.09 337.24 170
497810.38 5420002.88 336.9 192
497810.77 5420001.21 337.73 163
497810.4 5420002.31 337.21 185
497811.62 5420001.77 337.39 176
497810.39 5420002.6 337.06 185
497810.42 5420001.16 337.84 169
497810.74 5420003.28 336.63 140
497811.61 5420003.04 337.12 144
497810.38 5420003.19 336.78 176
497810.74 5420002.98 336.79 136
497810.75 5420002.68 336.93 148
497811.62 5420001.14 337.56 54
497811.62 5420001.46 337.52 117
497810.41 5420001.73 337.52 188
497810.4 5420002.02 337.38 181
497811.62 5420002.08 337.33 141
497810.41 5420001.45 337.66 201
497810.76 5420001.79 337.41 153
497811.61 5420003.34 337.01 164
497810.75 5420002.39 337.09 154
497814.16 5420001.31 337.21 152
497814.52 5420002.71 337.35 128
497815.73 5420001.6 336.36 136
497814.53 5420003.06 337.45 104
497814.49 5420001.67 337.11 114
497815.31 5420002.17 336.19 190
497814.48 5420001.32 337.02 115
497814.17 5420001.63 337.27 113
497815.74 5420001.32 336.55 138
497815.32 5420001.87 336.32 182
497814.18 5420002.28 337.39 121
497814.18 5420001.96 337.37 152
497815.37 5420003.03 336.96 105
497815.33 5420001.28 336.63 164
497814.51 5420002.36 337.25 109
497814.5 5420002.02 337.19 121
497815.33 5420001.57 336.49 176
497815.73 5420001.91 336.25 147
497814.2 5420003.26 337.63 136
497814.19 5420002.62 337.53 141
497814.2 5420002.93 337.55 130
497809.06 5420006.77 335.19 184
497809.43 5420006.05 335.5 121
497809.44 5420005.75 335.64 94
497809.07 5420006.47 335.36 178
497809.08 5420005.88 335.66 184
497809.05 5420007.08 335.05 176
497809.04 5420007.67 334.72 176
497808.21 5420006.42 335.58 162
497809.04 5420007.37 334.88 185
497809.4 5420007.56 334.7 132
497808.22 5420005.81 335.89 164
497807.87 5420005.68 336.05 187
497809.07 5420006.17 335.53 181
497809.42 5420006.66 335.2 117
497808.21 5420006.12 335.74 144
497808.2 5420006.72 335.42 14
497809.42 5420006.97 335.03 112
497809.43 5420006.36 335.38 116
497809.41 5420007.27 334.89 118
497804.41 5419997.84 337.21 104
497804.04 5419996.96 336.63 123
497804.37 5419996.7 336.58 108
497804.39 5419997.45 336.95 131
497804.38 5419997.07 336.76 106
497816.55 5420004.6 334.46 34
497816.56 5420004.34 334.75 157
497816.57 5420004.03 334.89 161
497816.58 5420003.44 335.21 184
497816.97 5420003.81 334.94 113
497816.57 5420003.72 335.02 171
497816.97 5420003.5 335.06 141
497816.96 5420004.4 334.62 78
497816.96 5420004.1 334.79 105
497815.7 5420003.69 335.28 122
497815.26 5420004.85 334.76 186
497815.28 5420004.25 335.06 184
497815.7 5420003.99 335.12 133
497814.43 5420004.19 335.32 157
497815.28 5420003.95 335.22 181
497815.68 5420004.9 334.65 139
497815.69 5420004.29 334.99 134
497815.29 5420003.66 335.4 137
497814.41 5420005.07 334.84 136
497815.26 5420005.15 334.6 99
497814.44 5420003.65 335.77 208
497815.27 5420004.56 334.91 197
497814.42 5420004.49 335.17 161
497814.41 5420005.38 334.69 158
497815.69 5420004.59 334.82 141
497815.29 5420003.37 335.58 184
497815.71 5420003.39 335.45 121
497814.43 5420003.9 335.49 25
497814.42 5420004.78 335.02 158
497812.85 5420000.09 337.87 158
497812 5420000.3 337.98 25
497813.23 5419999.93 337.83 130
497812.84 5420000.37 337.69 34
497812.01 5419999.41 338.43 124
497812.87 5419998.96 338.43 172
497812.87 5419999.24 338.29 170
497812 5420000.62 337.89 82
497813.25 5419999.05 338.3 162
497812 5420000.94 337.84 92
497813.22 5420000.51 337.52 36
497812 5420000 338.13 121
497812.86 5419999.8 338 152
497812.85 5420000.7 337.75 126
497813.24 5419999.33 338.15 148
497812.01 5419999.71 338.27 130
497812.86 5419999.52 338.16 177
497813.24 5419999.64 338.02 134
497813.23 5420000.87 337.6 121
497813.23 5420000.23 337.72 132
497812.86 5420001.05 337.85 114
497809.49 5420003.09 337.03 124
497809.5 5420002.22 337.49 101
497809.17 5420001.78 337.81 173
497808.31 5420001.39 338.22 141
497807.93 5420003.07 337.41 163
497809.18 5420001.49 337.95 179
497807.94 5420002.51 337.74 180
497809.49 5420002.8 337.18 120
497809.14 5420002.93 337.18 168
497809.52 5420001.33 337.93 128
497808.27 5420003.15 337.31 140
497808.3 5420001.97 337.92 162
497809.16 5420002.07 337.64 173
497809.16 5420002.35 337.51 158
497807.94 5420002.78 337.57 179
497807.96 5420001.66 338.18 38
497807.95 5420002.22 337.86 176
497809.52 5420001.63 337.8 114
497809.15 5420002.64 337.35 157
497809.51 5420001.92 337.63 112
497807.96 5420001.94 338.04 162
497808.29 5420002.27 337.78 145
497807.97 5420001.37 338.33 29
497808.3 5420001.68 338.07 141
497808.31 5420001.11 338.39 156
497809.18 5420001.21 338.1 168
497808.28 5420002.85 337.45 153
497809.14 5420003.22 337.06 182
497809.5 5420002.51 337.36 101
497808.28 5420002.55 337.59 173
497810.7 5420005.09 335.71 157
497810.35 5420004.66 336.03 178
497810.33 5420005.23 335.69 194
497811.56 5420004.12 336.02 197
497811.54 5420005.32 335.39 179
497810.72 5420004.18 336.17 148
497810.35 5420004.36 336.15 180
497810.7 5420005.4 335.57 160
497811.56 5420004.41 335.86 181
497810.71 5420004.49 336.03 152
497810.71 5420004.79 335.87 140
497811.55 5420004.72 335.73 185
497810.33 5420005.54 335.55 186
497810.34 5420004.94 335.86 173
497811.54 5420005.02 335.53 185
497812.88 5420002.98 337.79 152
497813.27 5420002.3 337.92 76
497812 5420001.89 337.58 118
497811.99 5420002.53 337.41 112
497812.88 5420002.07 338.04 166
497812 5420002.22 337.53 118
497813.28 5420002.66 338.04 107
497812.88 5420002.37 337.92 123
497812 5420001.58 337.67 108
497812 5420002.87 337.38 116
497813.28 5420003.31 337.93 84
497813.24 5420001.23 337.7 114
497813.29 5420003 338.07 129
497812.88 5420001.75 338.06 149
497812.88 5420002.68 337.88 112
497813.26 5420001.94 337.84 98
497812.87 5420001.4 337.92 96
497813.25 5420001.58 337.73 115
497812 5420003.19 337.29 104
497812.87 5420003.29 337.7 150
497812 5420001.25 337.71 126
497809.03 5420007.96 334.5 14
497812.87 5420003.9 337.55 170
497813.28 5420003.94 337.77 102
497813.2 5420004.23 336.19 73
497812.87 5420004.52 337.39 218
497813.28 5420003.64 337.89 84
497811.99 5420004.16 337.07 118
497812.87 5420003.6 337.65 160
497811.99 5420004.48 336.98 102
497811.99 5420003.83 337.13 94
497811.99 5420003.51 337.22 124
497812.87 5420004.22 337.52 155
497813.28 5420004.27 337.72 145
497813.14 5420005.61 334.85 118
497811.9 5420006.04 334.92 114
497812.74 5420005.87 334.83 166
497812.73 5420006.16 334.67 180
497814.06 5420005.63 334.65 172
497811.9 5420005.75 335.09 116
497813.14 5420005.93 334.74 116
497804.02 5419996.58 336.43 142
497804.01 5419996.21 336.23 118
497804.35 5419996.31 336.36 104
497807.9 5419997.03 337.55 133
497808.26 5419997.75 338.03 100
497809.5 5419997.51 338.21 68
497808.29 5419998.49 338.41 108
497808.25 5419997.35 337.8 100
497808.23 5419996.98 337.62 100
497809.51 5419997.89 338.41 64
497807.95 5419998.52 338.39 124
497809.16 5419997.68 338.22 104
497808.22 5419996.61 337.42 110
497807.88 5419996.66 337.36 112
497809.15 5419997.3 338 118
497809.46 5419996.75 337.77 6
497808.28 5419998.12 338.25 98
497807.91 5419997.39 337.76 123
497809.48 5419997.12 337.97 81
497809.17 5419998.04 338.39 122
497809.13 5419996.92 337.79 134
497806.68 5420003.21 337.66 20
497807 5420003.21 337.57 155
497807.02 5420002.33 338.06 140
497807.01 5420002.62 337.89 150
497806.7 5420002.39 338.07 204
497806.72 5420001.85 338.35 152
497807.01 5420002.91 337.73 153
497806.7 5420002.67 337.96 190
497806.69 5420002.94 337.78 192
497807.03 5420001.73 338.34 136
497806.71 5420002.12 338.24 166
497807.02 5420002.02 338.19 124
497806.89 5419994.52 336.97 131
497806.56 5419995.28 336.37 105
497805.28 5419995.75 336.3 101
497806.91 5419996.47 337.02 89
497806.89 5419995.43 336.77 120
497806.88 5419995.71 336.63 43
497806.58 5419994.8 336.76 182
497805.31 5419996.44 336.67 105
497806.6 5419996.33 336.9 120
497806.9 5419996.1 336.85 94
497806.89 5419994.83 336.94 128
497805.62 5419995.6 336.25 50
497806.58 5419994.52 336.83 163
497805.63 5419995.96 336.46 85
497806.89 5419995.12 336.83 141
497806.58 5419995.06 336.64 35
497805.29 5419996.09 336.47 107
497806.57 5419995.62 336.51 105
497806.58 5419995.97 336.7 115
497805.65 5419996.34 336.67 94
497810.36 5420004.06 336.33 163
497810.72 5420003.88 336.33 144
497810.73 5420003.58 336.47 136
497810.37 5420003.77 336.46 155
497810.37 5420003.48 336.61 161
497811.61 5420003.67 336.96 98
497811.57 5420003.82 336.19 162
497808.21 5419995.94 337.34 129
497807.88 5419994.5 337.48 205
497809.1 5419994.95 337.53 129
497808.21 5419995.65 337.42 136
497809.45 5419996.07 337.63 61
497808.21 5419994.75 337.63 96
497807.87 5419995.99 337.18 178
497809.12 5419996.58 337.68 105
497807.87 5419995.39 337.31 193
497808.21 5419996.26 337.3 57
497807.87 5419996.3 337.2 106
497808.21 5419994.45 337.7 84
497809.11 5419995.29 337.61 101
497807.87 5419994.8 337.44 164
497809.43 5419995.05 337.39 82
497809.44 5419995.72 337.53 84
497809.09 5419994.61 337.45 140
497809.41 5419994.37 337.24 70
497809.13 5419995.98 337.83 152
497808.21 5419995.35 337.49 132
497809.13 5419996.29 337.81 168
497809.45 5419996.4 337.67 62
497809.42 5419994.71 337.3 96
497809.12 5419995.63 337.69 115
497807.87 5419995.68 337.23 131
497808.21 5419995.04 337.54 107
497807.87 5419995.1 337.36 173
497809.43 5419995.38 337.44 76
497806.99 5420003.5 337.41 171
497806.99 5420003.81 337.28 126
497816.59 5420002.55 335.67 179
497816.59 5420002.84 335.52 180
497816.98 5420003.22 335.26 102
497816.6 5420002.24 335.79 1
497816.58 5420003.14 335.35 190
497815.38 5420003.4 337.05 166
497814.22 5420003.92 337.8 140
497814.21 5420003.59 337.73 130
497814.53 5420003.41 337.49 102
497814.55 5420003.77 337.59 124
497810.34 5419995.22 337.17 136
497810.38 5419996.32 337.74 148
497811.57 5419995.56 337.6 112
497811.61 5419996.34 338.05 108
497811.55 5419994.82 337.23 122
497811.53 5419994.44 337.03 112
497810.72 5419996.27 337.81 94
497811.59 5419995.95 337.83 113
497810.66 5419994.76 337.03 98
497810.65 5419994.37 336.76 101
497810.69 5419995.52 337.41 97
497810.36 5419995.96 337.56 136
497810.35 5419995.6 337.39 141
497810.31 5419994.49 336.81 13
497811.56 5419995.2 337.43 110
497810.71 5419995.89 337.63 104
497810.32 5419994.86 336.98 139
497810.68 5419995.14 337.21 89
497811.88 5419994.42 337.09 80
497802.96 5419993.67 334.66 85
497803.91 5419993.28 334.68 109
497804.25 5419993.67 334.93 108
497803.88 5419992.53 334.23 17
497804.23 5419993.28 334.71 98
497802.97 5419994.04 334.86 112
497803.93 5419994.01 335.06 113
497804.21 5419992.53 334.32 93
497803.92 5419993.64 334.86 104
497804.26 5419994.03 335.14 98
497802.92 5419992.9 334.21 1
497803.89 5419992.9 334.45 100
497802.94 5419993.28 334.42 91
497804.22 5419992.91 334.54 90
497805.52 5419993.04 334.9 99
497806.44 5419992.15 334.66 115
497806.43 5419992.68 334.4 179
497806.73 5419992.55 334.44 163
497806.72 5419992.82 334.23 156
497805.53 5419993.4 335.09 97
497806.47 5419992.57 335.1 110
497805.17 5419992.66 334.64 105
497805.55 5419993.76 335.29 85
497806.77 5419992.42 335.15 123
497805.18 5419992.99 334.81 98
497805.49 5419992.3 334.52 97
497805.16 5419992.31 334.41 91
497805.22 5419994.02 335.35 91
497805.5 5419992.67 334.7 113
497805.19 5419993.34 335 104
497805.21 5419993.69 335.19 108
497805.56 5419994.14 335.49 17
497806.42 5419992.92 334.23 150
497811.96 5419996.35 338.15 86
497812.85 5419996.4 338.37 113
497813.15 5419994.57 337.51 99
497812.79 5419994.94 337.57 110
497813.21 5419996.1 338.32 104
497812.82 5419995.66 337.97 116
497811.9 5419994.8 337.28 81
497812.8 5419995.29 337.77 113
497813.2 5419995.71 338.1 104
497812.77 5419994.58 337.42 122
497811.91 5419995.19 337.53 78
497813.18 5419995.32 337.9 93
497811.93 5419995.57 337.72 80
497813.16 5419994.94 337.69 93
497811.94 5419995.96 337.91 89
497812.83 5419996.04 338.17 98
497811.83 5419993.27 336.47 82
497811.47 5419992.94 336.2 123
497811.49 5419993.32 336.44 133
497810.63 5419993.99 336.56 100
497810.3 5419994.13 336.64 109
497810.6 5419993.26 336.24 5
497810.28 5419993.74 336.36 120
497811.87 5419994.04 336.92 84
497811.85 5419993.66 336.71 83
497810.62 5419993.62 336.39 99
497811.5 5419993.69 336.63 121
497810.27 5419993.4 336.24 9
497811.82 5419992.88 336.26 77
497811.52 5419994.07 336.81 101
497802.98 5419994.41 335.02 121
497804.32 5419995.55 335.94 99
497803 5419994.8 335.28 11
497804.31 5419995.17 335.72 106
497804.29 5419994.79 335.53 108
497803.98 5419995.48 335.83 115
497804.34 5419995.93 336.13 94
497803.97 5419995.1 335.63 93
497804 5419995.84 336.03 115
497803.95 5419994.37 335.25 112
497803.96 5419994.74 335.44 100
497804.28 5419994.42 335.33 98
497810.14 5419990.08 334.44 129
497811.77 5419991.75 335.69 81
497810.51 5419990.99 335 100
497811.76 5419991.38 335.48 78
497810.49 5419990.61 334.78 86
497811.43 5419991.8 335.59 116
497810.21 5419991.91 335.37 136
497811.4 5419991.06 335.21 125
497810.47 5419989.86 334.42 102
497810.15 5419990.44 334.58 126
497810.53 5419991.36 335.2 96
497811.39 5419990.69 335 120
497811.37 5419990.32 334.85 51
497810.17 5419990.82 334.81 137
497810.54 5419991.74 335.39 88
497810.19 5419991.54 335.19 138
497811.42 5419991.44 335.42 121
497810.18 5419991.19 335.02 138
497810.48 5419990.23 334.56 89
497807.73 5419992.01 335.17 156
497808.89 5419990.64 334.41 106
497807.69 5419991.53 334.6 128
497808.92 5419991.38 334.81 117
497809.25 5419991.55 334.97 69
497808.01 5419991.36 334.55 94
497807.99 5419991 334.38 80
497809.27 5419991.91 335.18 75
497808.05 5419991.84 335.17 118
497809.24 5419991.17 334.75 67
497807.67 5419991.16 334.34 120
497808.02 5419992.01 334.61 177
497809.22 5419990.8 334.56 59
497809.21 5419990.43 334.36 68
497808.91 5419991.01 334.59 116
497808.94 5419991.77 335.09 114
497811.8 5419992.52 336.07 89
497810.22 5419992.28 335.59 14
497810.56 5419992.12 335.59 30
497811.46 5419992.56 336.01 112
497811.79 5419992.13 335.86 92
497811.44 5419992.19 335.82 115
497809.08 5419993.94 337.3 144
497809.38 5419993.03 336.94 81
497808.21 5419993.83 337.81 104
497809.06 5419992.94 337.09 148
497807.88 5419994.22 337.59 149
497808.22 5419994.15 337.81 156
497808.2 5419993.49 337.68 105
497809.4 5419994.03 337.15 97
497807.88 5419993.63 337.7 121
497807.88 5419993.92 337.64 128
497809.09 5419994.28 337.39 121
497809.39 5419993.7 337.09 75
497809.37 5419992.7 336.9 105
497809.08 5419993.61 337.24 108
497809.07 5419993.27 337.15 158
497808.2 5419993.16 337.65 19
497807.89 5419993.35 337.82 178
497809.39 5419993.36 337.02 93
497806.89 5419994.23 337.08 125
497806.59 5419994.24 336.9 136
497806.89 5419993.92 337.13 123
497806.59 5419993.97 336.97 160
497805.48 5419991.95 334.32 90
497806.42 5419991.46 334.28 57
497806.72 5419991.58 334.4 85
497806.73 5419991.95 334.57 92
497806.43 5419991.81 334.44 83
497812.73 5419993.48 336.82 94
497812.76 5419994.2 337.2 115
497812.74 5419993.83 336.99 101
497805.14 5419991.95 334.21 11
497807.7 5419992.16 334.6 235
497808 5419992.24 334.28 0
497808.96 5419992.17 335.39 72
497805.27 5419995.39 336.06 30
497805.23 5419994.38 335.58 33
497802.57 5419993.54 334.46 124
497802.58 5419993.92 334.66 1
497802.55 5419993.17 334.29 62
497811.65 5419999.99 338.22 172
497810.8 5420000.03 338.34 144
497810.43 5420000.87 337.98 193
497810.43 5420000.59 338.12 220
497810.79 5420000.33 338.19 140
497810.44 5420000.31 338.28 203
497810.79 5420000.62 338.07 158
497811.64 5420000.56 337.9 182
497810.45 5420000.02 338.43 221
497811.65 5419999.69 338.35 157
497811.64 5420000.26 338.03 171
497810.78 5420000.91 337.89 149
497811.63 5420000.86 337.74 172
497814.22 5419996.97 339.01 97
497814.2 5419998.05 338.6 179
497814.21 5419997.8 338.75 176
497814.52 5419998.15 338.5 164
497814.53 5419997.6 338.81 120
497814.2 5419998.32 338.48 182
497814.22 5419997.55 338.92 137
497814.52 5419997.87 338.63 201
497814.22 5419997.29 339.07 108
497806.74 5420000.19 339.01 96
497806.74 5420000.79 338.95 134
497805.43 5419999.92 338.53 142
497807.06 5420000.29 339.15 131
497807.01 5419999.13 338.47 105
497806.73 5420001.03 338.76 178
497806.75 5420000.52 339.12 130
497805.82 5420001.1 339 70
497806.73 5419999.83 338.76 115
497805.82 5420000.82 339.16 130
497807.05 5419999.9 338.92 76
497806.72 5419999.48 338.6 115
497805.45 5420000.28 338.76 60
497805.78 5419999.67 338.46 107
497805.79 5420000.06 338.68 107
497807.05 5420000.57 338.95 114
497807.05 5420000.85 338.79 139
497805.81 5420000.44 338.92 81
497807.03 5419999.51 338.67 99
497812.03 5419998.24 339.04 75
497813.25 5419998.75 338.45 156
497812.86 5419996.77 338.58 118
497813.26 5419998.19 338.78 138
497812.89 5419998.4 338.76 158
497812.89 5419997.51 338.99 85
497812.01 5419997.51 338.78 78
497813.26 5419998.46 338.6 155
497811.99 5419997.12 338.56 83
497813.27 5419997.89 338.92 112
497812.88 5419997.14 338.78 121
497812.89 5419998.13 338.9 120
497813.24 5419996.85 338.71 96
497812.02 5419998.83 338.74 106
497812.03 5419997.9 339 60
497812.03 5419998.53 338.89 92
497813.26 5419997.25 338.97 80
497812.88 5419998.67 338.57 179
497812.9 5419997.85 339.07 138
497813.28 5419997.61 339.13 188
497807.98 5420001.1 338.52 1
497809.56 5419999.34 339.04 62
497808 5420000.24 338.93 132
497809.55 5419999.91 338.72 99
497808.31 5419998.88 338.63 112
497809.54 5420000.19 338.57 115
497809.22 5419999.15 338.98 81
497809.2 5420000.34 338.56 170
497808 5419999.98 339.11 137
497809.21 5420000.07 338.73 157
497809.56 5419999.63 338.91 76
497809.56 5419999.01 339.01 46
497808.32 5420000.52 338.67 134
497807.99 5420000.53 338.78 169
497808.34 5419999.66 339.11 76
497808.32 5420000.81 338.55 134
497808.33 5420000.23 338.83 114
497808 5419999.63 338.98 100
497807.97 5419998.87 338.55 108
497809.21 5419999.77 338.86 101
497807.98 5419999.24 338.75 126
497808.34 5419999.95 339 114
497809.22 5419999.5 339.04 102
497808.32 5419999.26 338.84 82
497807.04 5420001.14 338.62 155
497806.73 5420001.31 338.63 198
497806.72 5420001.58 338.49 176
497807.04 5420001.44 338.49 147
497811.64 5419997.09 338.46 113
497810.81 5419998.19 338.87 83
497811.68 5419998.53 338.96 123
497811.69 5419998.25 339.15 177
497811.67 5419998.82 338.79 142
497810.79 5419997.8 338.62 112
497810.46 5419998.56 338.97 106
497810.45 5419998.19 338.78 128
497810.77 5419997.42 338.44 100
497811.67 5419997.86 338.89 74
497810.82 5419998.6 339.14 113
497810.44 5419997.82 338.59 150
497811.65 5419997.47 338.66 108
497809.2 5419998.79 338.79 110
497808.01 5419998.14 339.38 100
497809.54 5419998.64 338.82 74
497809.19 5419998.42 338.61 129
497809.53 5419998.25 338.61 70
497807.96 5419998.23 338.51 1
497811.66 5419999.39 338.47 182
497810.81 5419999.46 338.65 149
497810.8 5419999.74 338.5 138
497810.46 5419999.17 338.88 133
497810.47 5419998.91 339.07 136
497810.81 5419999.17 338.83 126
497810.45 5419999.75 338.58 204
497810.82 5419998.87 338.97 118
497810.46 5419999.46 338.72 198
497811.67 5419999.11 338.65 168
497809.53 5420001.06 338.12 113
497809.53 5420000.77 338.25 120
497809.54 5420000.48 338.43 122
497809.19 5420000.62 338.38 189
497809.19 5420000.92 338.27 186
497811.98 5419996.73 338.35 65
497810.39 5419996.7 337.97 144
497810.42 5419997.44 338.35 144
497810.74 5419996.66 338.02 90
497811.62 5419996.7 338.22 113
497810.41 5419997.07 338.14 124
497810.76 5419997.05 338.27 106
497808.05 5420001.11 339.77 30
497805.75 5419998.94 338.09 109
497805.39 5419998.87 337.95 117
497806.7 5419999.12 338.41 126
497805.41 5419999.22 338.14 123
497805.76 5419999.31 338.28 102
497805.42 5419999.58 338.35 131
497812.02 5419999.11 338.55 134
497814.52 5419998.44 338.36 133
497814.19 5419998.85 338.22 161
497814.51 5419998.72 338.21 132
497814.19 5419998.57 338.31 149
497813.23 5419996.46 338.49 93
