1481
497757.88 5419974.23 332.36 142
497757 5419973.79 332.16 123
497757.73 5419973.36 332.09 116
497756.42 5419974.28 332.29 87
497757.88 5419973.34 332.09 97
497757.16 5419974.58 332.32 157
497753.92 5419971.76 330.16 95
497754.71 5419972.31 330.71 102
497754.07 5419970.66 329.55 77
497755.46 5419971.77 330.54 116
497755.45 5419970.42 329.76 100
497755.46 5419972.11 330.74 108
497754.87 5419970.36 329.59 76
497753.92 5419972.07 330.35 107
497753.92 5419971.45 329.97 96
497754.71 5419971.96 330.48 99
497754.71 5419971.62 330.3 97
497754.08 5419971.63 330.1 81
497754.7 5419970.95 329.89 92
497755.47 5419970.17 330.68 136
497753.91 5419970.83 329.61 92
497754.71 5419971.29 330.1 95
497754.7 5419970.28 329.49 85
497755.65 5419972.09 330.79 92
497754.07 5419971.3 329.9 85
497754.08 5419972.28 330.5 89
497754.88 5419972.1 330.62 71
497754.07 5419970.99 329.73 79
497753.92 5419971.14 329.8 108
497755.65 5419971.76 330.61 84
497753.91 5419970.21 329.22 108
497754.87 5419970.71 329.79 75
497754.08 5419971.96 330.32 83
497755.46 5419971.43 330.35 76
497755.45 5419971.09 330.14 115
497755.66 5419970.39 330.75 118
497755.45 5419970.75 329.94 112
497754.88 5419971.41 330.2 73
497754.7 5419970.61 329.7 88
497754.88 5419971.06 330 77
497755.64 5419971.04 330.14 92
497755.66 5419971 330.91 33
497754.07 5419970.34 329.36 83
497754.88 5419971.76 330.43 75
497755.47 5419970.47 330.76 99
497753.91 5419970.52 329.4 104
497755.64 5419971.4 330.38 88
497755.66 5419970.71 330.87 112
497755.46 5419975.61 332.18 186
497754.09 5419976.31 332.15 127
497755.47 5419975.37 332.33 185
497754.09 5419976.53 332.02 139
497755.44 5419976.57 331.62 181
497754.9 5419975.77 332.24 120
497753.94 5419975.22 332.21 96
497755.66 5419975.41 332.27 130
497754.72 5419975.61 332.36 163
497754.91 5419975.28 332.54 144
497755.66 5419975.66 332.11 151
497754.1 5419975.84 332.43 142
497755.48 5419975.16 332.51 167
497754.73 5419975.04 332.32 110
497755.67 5419975.16 332.41 139
497754.72 5419976.09 332.11 161
497753.94 5419975.54 332.41 104
497754.89 5419976.02 332.11 128
497755.45 5419976.33 331.74 175
497754.71 5419976.34 331.97 161
497754.1 5419976.08 332.3 143
497753.93 5419976.04 332.35 170
497755.44 5419976.82 331.48 165
497754.7 5419976.82 331.7 116
497754.88 5419976.84 331.9 91
497753.92 5419976.72 331.97 155
497754.73 5419975.39 332.55 191
497753.93 5419976.49 332.09 159
497755.64 5419976.65 331.54 134
497755.48 5419974.82 332.35 119
497754.73 5419974.7 332.13 100
497754.1 5419974.93 332.11 84
497753.93 5419976.26 332.22 169
497754.89 5419976.27 331.96 122
497754.88 5419976.51 331.79 144
497755.65 5419976.15 331.81 139
497755.64 5419976.39 331.66 128
497754.7 5419976.58 331.81 162
497753.94 5419975.83 332.51 157
497754.9 5419975.52 332.38 127
497754.08 5419976.77 331.87 130
497755.65 5419975.9 331.95 146
497753.94 5419974.92 332.06 107
497755.46 5419975.85 332.03 169
497754.1 5419975.26 332.29 84
497755.46 5419976.1 331.92 174
497754.72 5419975.87 332.27 150
497754.1 5419975.6 332.53 88
497754.9 5419974.93 332.3 84
497755.67 5419974.92 332.52 102
497757.87 5419968.37 330.44 115
497756.25 5419969.74 330.67 131
497757.73 5419967.86 330.31 138
497757.87 5419968.94 330.63 114
497756.99 5419969.87 330.79 142
497757.15 5419969.58 330.73 123
497756.25 5419969.43 330.55 146
497757 5419968 330.27 134
497756.25 5419968.85 330.41 126
497757.73 5419968.38 330.44 146
497756.41 5419968 330.17 116
497756.25 5419968.25 330.22 136
497757.73 5419968.12 330.37 131
497756.99 5419968.8 330.48 140
497756.41 5419969.52 330.61 111
497757.87 5419969.5 330.76 123
497757.73 5419969.45 330.76 144
497756.41 5419969.21 330.52 119
497756.99 5419969.6 330.72 150
497757 5419968.54 330.43 144
497757.15 5419969 330.56 123
497756.41 5419968.91 330.44 108
497756.41 5419968.29 330.26 116
497757.15 5419968.16 330.32 123
497757.87 5419969.22 330.69 112
497756.99 5419969.06 330.56 143
497757 5419968.26 330.34 140
497757.15 5419969.86 330.79 111
497757.73 5419969.99 330.91 140
497756.25 5419969.14 330.46 124
497757.73 5419968.65 330.53 135
497757.87 5419968.65 330.52 116
497756.99 5419969.33 330.63 143
497757.15 5419969.28 330.62 131
497756.25 5419967.97 330.16 135
497756.25 5419968.55 330.33 130
497757.15 5419968.72 330.46 112
497756.41 5419969.82 330.7 112
497756.41 5419968.61 330.35 108
497756.24 5419970.03 330.72 134
497757.88 5419970.07 330.93 118
497757.73 5419968.92 330.6 130
497757.88 5419969.79 330.85 126
497757.15 5419968.45 330.41 123
497757.15 5419967.88 330.25 118
497757.87 5419968.1 330.37 111
497757.73 5419969.72 330.82 135
497757.73 5419969.18 330.67 132
497760.36 5419975.06 331.59 148
497758.36 5419976.35 331.45 181
497760.5 5419975.03 331.56 138
497758.38 5419974.91 331.84 190
497758.5 5419975.88 331.58 147
497758.36 5419976.59 331.41 177
497759.68 5419975.57 331.51 197
497758.49 5419976.39 331.43 161
497759.81 5419975.61 331.5 151
497759.82 5419974.6 331.77 134
497759.82 5419975.1 331.63 178
497759.06 5419975.68 331.53 197
497758.37 5419975.63 331.65 171
497760.36 5419974.81 331.64 198
497758.37 5419975.39 331.73 190
497759.82 5419974.85 331.71 162
497759.69 5419974.85 331.71 202
497759.06 5419976.16 331.42 189
497759.21 5419975.71 331.54 158
497759.07 5419974.97 331.74 208
497760.35 5419975.52 331.43 201
497759.06 5419975.92 331.5 173
497759.67 5419976.05 331.4 162
497758.52 5419974.64 331.97 153
497758.51 5419975.38 331.73 154
497759.08 5419974.74 331.83 174
497759.8 5419975.86 331.41 183
497759.69 5419974.62 331.77 165
497760.5 5419975.28 331.49 170
497759.68 5419975.34 331.59 162
497759.07 5419975.45 331.64 181
497758.36 5419976.11 331.53 197
497759.22 5419975.47 331.6 148
497760.5 5419974.77 331.63 158
497760.49 5419975.52 331.42 165
497759.23 5419974.71 331.83 153
497759.68 5419975.09 331.62 204
497758.39 5419974.69 331.98 177
497759.07 5419975.21 331.69 175
497758.5 5419976.14 331.5 165
497758.52 5419974.87 331.84 162
497758.51 5419975.64 331.66 159
497759.67 5419975.81 331.44 189
497759.22 5419975.21 331.67 148
497759.21 5419975.96 331.45 154
497758.38 5419975.15 331.81 213
497758.49 5419976.65 331.35 173
497758.51 5419975.12 331.78 150
497760.35 5419975.29 331.5 214
497759.23 5419974.95 331.73 170
497759.21 5419976.23 331.39 151
497759.81 5419975.35 331.56 153
497760.34 5419975.77 331.37 159
497758.37 5419975.86 331.59 187
497760.48 5419966.47 328.69 88
497758.37 5419966.18 328.62 2
497760.48 5419966.79 328.89 85
497760.47 5419965.85 328.33 16
497760.47 5419966.16 328.5 91
497760.34 5419965.81 328.27 1
497760.35 5419966.71 328.82 102
497760.34 5419966.11 328.47 102
497759.78 5419966.23 328.41 52
497760.35 5419966.41 328.66 104
497760.35 5419967 329 107
497761.77 5419966.32 328.95 92
497761 5419966.8 329.04 102
497762.41 5419966.12 329 91
497761 5419966.5 328.84 107
497761.14 5419966.29 328.78 80
497761.64 5419966.26 328.9 95
497761 5419966.2 328.68 93
497762.28 5419966.16 329 111
497761.64 5419965.96 328.73 97
497761.14 5419965.98 328.59 88
497760.99 5419965.62 328.36 18
497761.77 5419966.01 328.78 84
497762.28 5419965.88 328.84 99
497760.99 5419965.91 328.51 89
497761.14 5419966.59 328.94 88
497761.13 5419965.66 328.4 71
497761.77 5419965.69 328.57 84
497761.64 5419966.55 329.08 102
497762.4 5419965.81 328.81 85
497761.63 5419965.67 328.57 103
497752.51 5419973.18 330.64 87
497753.28 5419972.4 330.34 91
497753.09 5419974.05 331.32 97
497752.52 5419973.9 331.1 81
497752.32 5419972.87 330.4 102
497753.28 5419972.74 330.57 88
497751.73 5419972.97 330.32 75
497752.32 5419972.52 330.19 106
497752.51 5419972.83 330.44 73
497751.73 5419972.62 330.08 85
497753.09 5419973 330.66 107
497752.51 5419972.48 330.25 84
497753.29 5419973.43 330.99 85
497751.57 5419972.46 329.96 84
497753.29 5419973.77 331.21 84
497752.33 5419973.21 330.61 104
497753.09 5419973.7 331.11 112
497752.33 5419973.9 331.04 102
497752.33 5419974.24 331.22 100
497753.08 5419972.65 330.47 104
497751.57 5419972.78 330.13 38
497753.09 5419973.35 330.91 96
497753.29 5419973.08 330.79 80
497752.52 5419973.54 330.86 77
497752.33 5419973.55 330.83 104
497751.74 5419973.3 330.49 5
497752.52 5419974.25 331.27 84
497757.73 5419971.35 331.29 151
497757.15 5419971.29 331.19 118
497757.15 5419971 331.11 120
497757.88 5419970.93 331.17 116
497757.15 5419970.14 330.88 102
497756.24 5419970.33 330.81 126
497756.41 5419970.13 330.77 115
497757.73 5419970.26 330.98 139
497757.73 5419971.07 331.2 131
497756.23 5419972.34 331.13 102
497756.99 5419970.68 331.03 138
497756.24 5419971.52 331.17 118
497756.24 5419970.62 330.9 134
497756.42 5419971.98 331.32 96
497756.24 5419972.12 331.31 123
497756.24 5419971.82 331.24 120
497757.88 5419971.22 331.25 115
497757.15 5419970.71 331.02 118
497756.99 5419971.49 331.24 147
497756.99 5419970.95 331.09 135
497756.41 5419970.74 330.96 118
497757.73 5419970.53 331.05 138
497756.41 5419970.43 330.87 103
497757.15 5419971.58 331.27 124
497756.24 5419970.92 330.98 139
497756.24 5419971.22 331.06 132
497756.41 5419971.36 331.14 119
497757.15 5419970.43 330.95 123
497756.99 5419970.13 330.84 151
497757.88 5419971.51 331.32 116
497757.88 5419970.36 331.01 114
497756.99 5419970.4 330.92 144
497757.87 5419970.64 331.08 126
497756.99 5419971.22 331.17 147
497756.41 5419971.66 331.21 122
497756.41 5419971.05 331.04 116
497757.73 5419970.8 331.13 142
497752.31 5419970.48 328.97 104
497752.5 5419970.34 328.92 76
497751.72 5419970.59 328.9 83
497751.56 5419970.78 328.96 84
497751.72 5419970.26 328.68 73
497751.56 5419970.12 328.57 79
497751.56 5419970.44 328.74 81
497752.31 5419970.14 328.78 102
497751.72 5419970.93 329.08 85
497753.07 5419970.24 329.01 103
497758.52 5419967.28 330.24 120
497758.4 5419967.69 330.34 151
497759.24 5419967.71 330.44 122
497759.71 5419966.99 330.3 138
497760.36 5419967.6 329.37 107
497760.48 5419967.12 329.1 87
497758.4 5419967.43 330.27 128
497759.1 5419966.55 330.13 112
497760.35 5419967.3 329.19 106
497759.84 5419967.65 330.49 116
497759.1 5419966.81 330.18 130
497758.52 5419967.83 330.39 114
497759.71 5419967.26 330.38 140
497759.24 5419967.15 330.29 110
497759.24 5419967.43 330.35 108
497760.49 5419967.43 329.27 84
497759.84 5419967.38 330.41 120
497758.52 5419967.55 330.31 120
497759.24 5419966.88 330.23 114
497759.1 5419967.06 330.24 139
497758.4 5419966.9 330.12 135
497758.52 5419967 330.16 111
497759.1 5419967.34 330.35 142
497759.71 5419967.53 330.46 143
497758.4 5419967.17 330.2 146
497760.49 5419967.74 329.43 92
497759.84 5419967.1 330.35 104
497759.71 5419966.74 330.23 91
497759.24 5419966.6 330.12 124
497759.1 5419967.6 330.42 124
497759.71 5419967.78 330.52 138
497755.66 5419969.18 330.42 119
497755.48 5419968.99 330.35 130
497755.66 5419969.78 330.59 110
497754.86 5419969.67 329.17 87
497754.89 5419968.61 330.17 114
497754.89 5419969.22 330.39 29
497755.48 5419968.69 330.27 147
497755.66 5419968.58 330.26 114
497755.48 5419968.11 330.12 21
497755.47 5419969.87 330.59 143
497754.7 5419969.94 329.29 102
497755.48 5419969.57 330.51 148
497755.48 5419969.28 330.44 150
497754.73 5419968.89 330.21 2
497754.73 5419968.59 330.14 134
497755.66 5419970.09 330.67 115
497755.66 5419969.49 330.53 103
497754.87 5419970.01 329.36 80
497754.07 5419970.02 329.15 85
497755.66 5419968.28 330.18 114
497755.48 5419968.39 330.17 154
497755.66 5419968.87 330.32 120
497754.89 5419968.9 330.26 120
497759.09 5419974.07 332.13 181
497759.71 5419973.94 332.06 155
497758.54 5419973.72 332.51 179
497758.54 5419973.4 332.32 96
497758.53 5419972.42 331.76 97
497759.1 5419972.49 331.94 99
497759.72 5419973.3 332.42 136
497759.85 5419972.59 332.16 95
497759.83 5419974.11 331.93 157
497759.11 5419973.11 332.32 118
497760.4 5419973.01 332.42 157
497759.1 5419973.64 332.38 157
497760.38 5419973.66 332.04 147
497759.26 5419973.3 332.47 79
497759.69 5419974.38 331.83 204
497759.73 5419973.07 332.47 100
497759.25 5419973.54 332.4 138
497759.85 5419973.22 332.5 147
497759.72 5419972.75 332.26 114
497760.4 5419973.24 332.32 159
497760.37 5419974.58 331.71 201
497759.84 5419973.65 332.19 150
497758.53 5419974.18 332.23 132
497760.54 5419972.57 332.35 96
497760.51 5419974.53 331.71 170
497759.23 5419974.46 331.89 148
497758.4 5419974.24 332.2 167
497758.41 5419973.22 332.19 118
497758.4 5419972.91 332.01 124
497759.11 5419972.81 332.15 110
497759.85 5419972.91 332.37 97
497759.1 5419973.85 332.25 163
497759.72 5419972.44 332.08 115
497760.53 5419973.33 332.2 144
497760.39 5419973.44 332.17 185
497759.25 5419972.96 332.26 92
497760.51 5419974.27 331.77 142
497758.53 5419974.41 332.09 163
497758.54 5419973.94 332.32 150
497759.83 5419974.35 331.84 185
497760.52 5419973.78 331.93 169
497759.09 5419974.28 332 173
497759.25 5419972.62 332.02 89
497758.53 5419972.75 331.95 93
497758.4 5419974.03 332.31 194
497759.72 5419973.51 332.3 162
497760.4 5419972.48 332.3 107
497760.41 5419972.8 332.51 112
497760.37 5419974.1 331.83 202
497760.37 5419974.35 331.78 169
497759.25 5419973.76 332.27 151
497759.84 5419973.88 332.07 143
497759.71 5419973.72 332.16 191
497758.54 5419973.07 332.12 88
497760.54 5419972.89 332.52 162
497760.38 5419973.88 331.93 166
497759.08 5419974.5 331.89 163
497760.52 5419974.01 331.83 165
497760.54 5419973.1 332.35 144
497759.24 5419974.22 331.99 151
497758.41 5419973.82 332.49 181
497758.41 5419973.53 332.37 111
497759.11 5419973.43 332.51 183
497760.53 5419973.56 332.09 139
497759.24 5419973.99 332.12 138
497759.7 5419974.16 331.95 183
497759.85 5419973.43 332.33 157
497758.4 5419972.6 331.83 119
497758.39 5419974.46 332.07 185
497755.46 5419972.45 330.97 107
497754.89 5419972.46 330.84 83
497754.89 5419972.81 331.02 80
497754.71 5419972.65 330.9 96
497754.72 5419973.33 331.32 97
497755.65 5419972.79 331.21 92
497754.09 5419973.6 331.27 91
497754.09 5419973.27 331.1 80
497753.92 5419972.7 330.73 107
497755.65 5419972.45 331 84
497755.46 5419972.79 331.18 107
497754.08 5419972.61 330.7 80
497753.92 5419972.39 330.55 111
497753.93 5419973.65 331.3 99
497754.72 5419972.98 331.11 110
497753.93 5419973.02 330.92 100
497753.93 5419973.33 331.12 95
497754.89 5419973.15 331.24 83
497754.09 5419972.94 330.91 79
497759.24 5419967.98 330.51 123
497759.84 5419967.92 330.56 119
497759.71 5419968.58 330.77 135
497758.52 5419968.39 330.52 127
497760.53 5419968.71 330.87 60
497759.1 5419968.13 330.55 146
497759.1 5419967.86 330.48 143
497760.49 5419968.05 329.64 91
497759.24 5419968.27 330.61 107
497758.53 5419969.8 330.93 126
497760.53 5419969.84 331.2 114
497758.53 5419968.67 330.62 123
497760.39 5419969.36 331.04 142
497759.1 5419969.98 331.07 139
497759.1 5419968.65 330.7 135
497760.39 5419969.63 331.13 140
497758.4 5419968.23 330.51 123
497759.84 5419968.77 330.81 118
497760.39 5419968.56 330.84 115
497759.84 5419969.89 331.12 122
497758.4 5419969.29 330.78 135
497759.71 5419968.32 330.69 138
497759.24 5419968.82 330.73 120
497759.24 5419969.96 331.07 122
497758.4 5419969.83 330.94 150
497759.84 5419969.33 330.97 106
497759.1 5419969.45 330.91 147
497760.52 5419968.98 330.92 88
497759.84 5419968.49 330.73 119
497758.4 5419968.48 330.55 135
497760.39 5419968.28 330.75 34
497759.84 5419969.05 330.9 115
497760.53 5419969.56 331.11 116
497760.53 5419969.27 331.02 102
497759.1 5419968.92 330.78 154
497759.71 5419969.64 331.03 144
497758.53 5419969.24 330.79 103
497759.24 5419968.54 330.66 114
497759.71 5419969.91 331.12 150
497759.24 5419969.39 330.91 116
497758.4 5419967.96 330.42 146
497758.4 5419968.75 330.64 148
497759.24 5419969.68 331 118
497760.39 5419968.82 330.91 116
497758.52 5419969.51 330.84 124
497759.84 5419969.61 331.04 118
497758.52 5419968.11 330.46 120
497758.53 5419970.09 331.03 115
497759.1 5419969.72 330.99 148
497760.39 5419969.9 331.21 134
497758.4 5419969.56 330.86 143
497758.53 5419968.95 330.7 115
497759.1 5419969.18 330.84 136
497759.84 5419968.21 330.65 118
497760.39 5419969.1 330.99 120
497759.71 5419968.05 330.62 142
497759.1 5419968.38 330.62 132
497759.24 5419969.11 330.84 122
497759.71 5419969.12 330.92 135
497759.71 5419969.38 330.99 134
497758.4 5419969.03 330.72 139
497759.71 5419968.84 330.83 155
497753.91 5419969.9 329.06 95
497753.9 5419968.69 328.34 2
497754.06 5419969.36 328.74 85
497754.69 5419968.6 328.49 100
497754.69 5419969.27 328.88 93
497753.91 5419969.6 328.88 97
497754.06 5419969.06 328.57 76
497754.7 5419969.6 329.09 95
497754.06 5419968.75 328.41 55
497754.69 5419968.93 328.67 96
497754.86 5419968.98 328.75 81
497754.06 5419969.7 328.97 81
497754.86 5419969.33 328.98 81
497753.9 5419968.98 328.5 104
497753.91 5419969.29 328.69 106
497757.74 5419967.59 330.24 144
497757.87 5419967.54 330.22 122
497757 5419967.48 330.14 100
497757.74 5419967.07 330.1 2
497757.74 5419967.33 330.15 136
497756.41 5419967.71 330.11 26
497757.87 5419967.26 330.14 119
497757 5419967.73 330.17 143
497757.87 5419967.81 330.28 115
497757.15 5419967.6 330.17 115
497761.19 5419973.32 332.03 153
497762.46 5419972.57 332.15 171
497762.42 5419974.52 331.48 136
497761.82 5419973.04 332.06 139
497761.02 5419974.33 331.73 159
497761.21 5419972.41 332.51 4
497761.03 5419973.85 331.84 185
497761.19 5419973.57 331.94 136
497761.81 5419973.77 331.78 150
497761.2 5419972.87 332.31 146
497761.69 5419972.52 332.41 151
497762.46 5419972.79 332.03 140
497762.3 5419974.19 331.6 174
497761.18 5419974.05 331.75 170
497762.45 5419973.03 331.93 151
497761.65 5419974.31 331.64 190
497762.47 5419972.35 332.32 139
497761.83 5419972.81 332.19 151
497762.29 5419974.43 331.53 221
497761.07 5419972.45 332.98 45
497761.67 5419973.37 331.91 186
497761.65 5419974.54 331.56 159
497761.8 5419974.25 331.62 166
497761.03 5419973.63 331.93 158
497761.82 5419973.27 331.93 163
497762.43 5419974.02 331.63 175
497761.02 5419974.09 331.75 189
497762.44 5419973.52 331.75 154
497762.34 5419972.38 332.33 182
497761.81 5419974.01 331.71 174
497762.31 5419973.24 331.85 191
497761.2 5419973.1 332.18 161
497761.66 5419974.07 331.71 193
497762.33 5419972.59 332.18 185
497761.21 5419972.66 332.48 120
497762.45 5419973.27 331.83 179
497761.01 5419974.56 331.63 181
497761.18 5419973.81 331.84 154
497761.68 5419972.94 332.16 187
497761.05 5419972.99 332.29 167
497762.44 5419973.77 331.7 154
497761.8 5419974.51 331.55 157
497761.69 5419972.72 332.26 161
497761.67 5419973.6 331.83 201
497761.17 5419974.56 331.62 165
497761.66 5419973.83 331.74 167
497761.68 5419973.15 332 173
497761.05 5419972.76 332.41 140
497761.17 5419974.3 331.7 144
497761.81 5419973.51 331.85 153
497761.84 5419972.38 332.5 127
497762.31 5419973.48 331.8 174
497761.06 5419972.57 332.55 110
497761.04 5419973.41 332.03 159
497761.04 5419973.2 332.16 148
497762.32 5419973.02 331.94 194
497762.33 5419972.8 332.07 170
497761.84 5419972.58 332.31 157
497762.31 5419973.71 331.73 214
497762.43 5419974.27 331.57 158
497762.3 5419973.95 331.65 198
497757.15 5419972.16 331.42 122
497757.88 5419971.79 331.39 132
497756.99 5419971.77 331.35 139
497756.99 5419972.32 331.46 135
497756.41 5419972.29 331.4 89
497757.88 5419972.08 331.48 127
497757.73 5419971.89 331.42 138
497757.73 5419972.16 331.5 151
497757.73 5419971.62 331.37 139
497757.15 5419971.87 331.36 123
497756.99 5419972.04 331.38 147
497751.72 5419971.26 329.26 85
497751.56 5419971.12 329.15 85
497753.27 5419971.03 329.54 80
497751.56 5419971.45 329.35 89
497753.27 5419970.36 329.15 87
497753.08 5419971.95 330.04 107
497752.32 5419971.83 329.77 104
497752.51 5419971.76 329.78 81
497753.08 5419971.62 329.85 103
497753.07 5419970.58 329.23 102
497753.27 5419971.7 329.93 95
497753.27 5419971.38 329.75 87
497752.32 5419972.17 329.97 104
497753.08 5419972.31 330.26 110
497751.73 5419971.94 329.7 84
497751.72 5419971.61 329.48 79
497751.56 5419971.78 329.55 97
497752.32 5419971.5 329.58 95
497752.31 5419970.82 329.17 97
497751.73 5419972.28 329.87 89
497753.08 5419970.93 329.45 99
497752.5 5419970.7 329.17 77
497752.5 5419971.4 329.57 75
497752.5 5419971.05 329.35 81
497753.27 5419970.69 329.35 79
497751.57 5419972.12 329.75 88
497752.32 5419971.15 329.38 99
497752.51 5419972.11 330 79
497753.28 5419972.05 330.15 97
497753.08 5419971.27 329.64 97
497759.24 5419970.82 331.3 119
497759.24 5419970.24 331.15 118
497759.24 5419970.53 331.22 116
497758.4 5419971.19 331.31 136
497759.1 5419970.8 331.31 136
497758.53 5419970.37 331.11 123
497758.4 5419970.91 331.23 146
497760.53 5419970.12 331.29 111
497759.71 5419970.45 331.27 130
497758.53 5419970.94 331.25 118
497759.1 5419970.53 331.23 136
497759.1 5419970.26 331.15 131
497760.53 5419970.41 331.33 114
497758.4 5419970.65 331.17 138
497759.84 5419970.46 331.29 118
497758.53 5419970.66 331.17 126
497760.39 5419970.17 331.29 135
497759.84 5419970.19 331.21 120
497758.4 5419970.1 331.01 140
497758.4 5419970.38 331.11 139
497759.71 5419970.18 331.22 150
497755.44 5419966.27 327.69 5
497755.46 5419966.3 328.61 1
497755.61 5419966.95 327.75 93
497755.43 5419966.55 327.73 119
497755.43 5419967.07 327.72 104
497755.43 5419966.81 327.74 114
497755.61 5419966.67 327.74 89
497754.85 5419966.68 327.62 85
497755.61 5419966.39 327.73 91
497754.87 5419966.65 328.37 17
497755.61 5419967.21 327.73 22
497761 5419975.51 331.37 155
497761.16 5419975.31 331.4 165
497761.64 5419975.02 331.44 162
497762.42 5419974.77 331.41 190
497761.63 5419975.25 331.35 166
497761.79 5419974.76 331.5 162
497762.28 5419974.9 331.41 170
497761.79 5419975.01 331.41 150
497761 5419975.03 331.52 167
497761.16 5419975.06 331.48 146
497761 5419975.27 331.43 182
497761.64 5419974.79 331.5 165
497762.29 5419974.66 331.45 185
497761.01 5419974.79 331.54 161
497761.16 5419974.8 331.54 166
497760.54 5419972.24 332.16 97
497759.71 5419970.72 331.35 153
497759.1 5419972.19 331.78 104
497760.39 5419971.26 331.61 123
497758.4 5419971.46 331.4 147
497759.84 5419971.03 331.43 114
497760.39 5419970.44 331.36 128
497760.39 5419970.71 331.43 138
497758.53 5419971.81 331.48 128
497758.53 5419971.23 331.36 124
497759.84 5419971.32 331.51 128
497760.53 5419970.7 331.43 127
497760.39 5419971.55 331.74 124
497760.4 5419971.86 331.91 110
497759.71 5419970.99 331.43 148
497759.25 5419972.3 331.84 92
497759.84 5419971.63 331.63 111
497760.53 5419971.59 331.76 89
497758.4 5419972.3 331.67 134
497759.24 5419971.98 331.66 103
497760.53 5419970.98 331.51 112
497760.53 5419971.28 331.61 114
497759.72 5419972.13 331.89 116
497759.1 5419971.6 331.51 153
497758.4 5419972.01 331.55 126
497759.71 5419971.54 331.6 132
497758.53 5419972.1 331.6 118
497759.1 5419971.07 331.4 139
497758.4 5419971.74 331.48 135
497759.85 5419972.26 331.97 96
497759.1 5419971.34 331.44 132
497759.84 5419971.94 331.81 102
497759.84 5419970.75 331.37 108
497760.39 5419970.99 331.52 139
497759.71 5419971.26 331.51 147
497760.4 5419972.17 332.13 107
497759.24 5419971.39 331.48 115
497759.24 5419971.11 331.41 122
497760.54 5419971.91 331.96 92
497758.53 5419971.53 331.44 114
497759.71 5419971.83 331.73 118
497759.24 5419971.69 331.57 103
497759.1 5419971.9 331.65 124
497762.34 5419971.01 331.96 84
497761.04 5419970.21 331.37 97
497761.69 5419971.39 331.99 118
497761.84 5419971.75 332.19 95
497761.7 5419971.99 332.33 115
497762.47 5419971.22 332.07 91
497761.04 5419970.48 331.43 114
497761.19 5419970.78 331.53 103
497761.69 5419971.69 332.14 112
497762.46 5419970.56 331.65 89
497762.46 5419970.25 331.47 96
497761.19 5419970.2 331.36 92
497762.47 5419971.54 332.24 119
497761.68 5419970.76 331.57 118
497761.83 5419970.78 331.62 88
497762.34 5419971.61 332.25 135
497762.33 5419970.38 331.55 111
497761.83 5419971.42 332.01 100
497761.04 5419970.74 331.51 135
497762.35 5419971.93 332.48 110
497761.05 5419971.03 331.62 120
497762.48 5419972.13 332.45 112
497761.2 5419971.08 331.67 115
497761.23 5419972.28 332.97 36
497762.47 5419970.89 331.88 87
497761.83 5419971.11 331.83 52
497761.05 5419971.31 331.74 96
497761.2 5419971.41 331.85 92
497761.19 5419970.5 331.47 95
497762.34 5419972.17 332.46 154
497762.33 5419970.7 331.74 115
497761.82 5419970.45 331.43 85
497761.84 5419972.09 332.42 81
497761.23 5419972.01 332.94 9
497761.08 5419971.95 332.99 17
497761.69 5419971.09 331.82 114
497762.48 5419971.86 332.45 93
497761.68 5419970.47 331.42 115
497761.7 5419972.31 332.53 175
497753.26 5419969.68 328.75 83
497752.49 5419969.99 328.72 73
497752.31 5419969.8 328.55 107
497752.31 5419969.47 328.39 45
497753.26 5419969.34 328.55 84
497753.07 5419969.91 328.83 103
497753.07 5419969.24 328.44 99
497753.07 5419969.57 328.65 96
497753.26 5419969.01 328.36 6
497752.49 5419969.64 328.51 75
497751.71 5419969.92 328.47 83
497751.56 5419969.78 328.35 16
497753.26 5419970.02 328.95 76
497756.23 5419975.43 332.08 169
497757.86 5419975.66 331.72 136
497757.14 5419975.28 331.92 161
497756.42 5419974.87 332.36 143
497757.85 5419975.92 331.64 170
497757.86 5419975.41 331.79 154
497756.22 5419976.15 331.67 147
497756.4 5419976.1 331.63 142
497757.88 5419974.69 332.12 150
497757.71 5419975.33 331.83 163
497756.98 5419975.26 331.97 182
497757.15 5419975.05 332.09 131
497756.22 5419975.9 331.81 174
497757.69 5419975.96 331.37 171
497756.97 5419975.71 331.72 174
497756.99 5419974.62 332.35 179
497757.12 5419976.22 331.39 140
497756.43 5419974.64 332.55 153
497756.39 5419976.36 331.51 126
497756.41 5419975.6 331.9 131
497756.98 5419975.06 332.1 181
497756.21 5419976.39 331.54 166
497756.97 5419975.49 331.83 159
497756.96 5419976.14 331.44 170
497756.42 5419975.12 332.21 144
497756.21 5419976.63 331.4 173
497757.71 5419975.55 331.75 170
497757.13 5419975.74 331.65 127
497757.72 5419975.09 331.92 183
497757.15 5419974.82 332.2 146
497756.96 5419975.93 331.59 178
497756.23 5419975.66 331.94 171
497756.24 5419975.19 332.24 140
497756.4 5419975.85 331.76 161
497757.14 5419975.52 331.8 150
497757.7 5419975.76 331.59 143
497757.87 5419975.15 331.84 175
497756.41 5419975.36 332.08 138
497757.73 5419974.64 332.16 162
497757.13 5419975.98 331.53 151
497756.25 5419974.71 332.52 162
497756.24 5419974.95 332.38 181
497757.87 5419974.92 331.97 153
497756.99 5419974.83 332.21 159
497757.72 5419974.86 332.01 173
497750.93 5419970.16 328.43 71
497750.94 5419970.85 328.8 76
497750.94 5419971.2 329.03 84
497750.74 5419970.29 328.42 91
497750.94 5419970.5 328.61 72
497750.74 5419970.64 328.64 95
497750.75 5419970.97 328.8 2
497757.7 5419965.51 328.2 110
497757.71 5419965.42 328.67 5
497757.1 5419965.54 327.69 17
497757.85 5419965.53 328.67 2
497762.29 5419966.77 329.37 104
497761 5419967.09 329.2 91
497761.01 5419967.38 329.37 102
497761.01 5419967.68 329.54 102
497762.29 5419967.07 329.56 112
497761.64 5419966.85 329.28 103
497761.65 5419967.73 329.77 110
497762.43 5419967.7 329.94 92
497761.65 5419967.14 329.42 99
497762.42 5419967.38 329.75 87
497761.78 5419966.63 329.14 88
497762.41 5419966.74 329.37 88
497762.42 5419967.07 329.58 87
497761.78 5419966.95 329.31 85
497762.3 5419967.37 329.74 111
497762.41 5419966.43 329.19 95
497761.78 5419967.26 329.51 89
497761.15 5419967.55 329.54 99
497762.29 5419966.47 329.2 119
497762.3 5419967.67 329.92 116
497761.65 5419967.44 329.6 110
497761.15 5419967.22 329.31 93
497761.79 5419967.58 329.71 91
497761.15 5419966.91 329.13 88
497753.29 5419974.11 331.4 87
497753.09 5419974.39 331.52 103
497753.29 5419974.46 331.59 84
497752.33 5419974.59 331.42 44
497756.24 5419972.67 331.32 93
497764.22 5419977.05 330.55 148
497763.58 5419978.32 330.26 155
497762.98 5419978.79 330.21 151
497764.05 5419978.62 330.14 166
497763.44 5419978.71 330.17 167
497762.98 5419979.06 330.13 169
497763.45 5419978.47 330.25 195
497763.58 5419978.6 330.21 142
497763.59 5419978.06 330.34 171
497764.68 5419978.47 330.08 135
497764.08 5419977.5 330.44 186
497763.61 5419977.03 330.63 151
497762.84 5419978.29 330.35 187
497763.45 5419978.21 330.3 209
497764.83 5419978.34 330.11 157
497764.06 5419978.34 330.21 167
497763.6 5419977.28 330.56 153
497762.99 5419978.52 330.28 134
497762.85 5419977.81 330.52 143
497762.85 5419978.04 330.42 198
497764.83 5419977.81 330.23 154
497764.21 5419977.6 330.41 151
497762.87 5419977.07 330.7 175
497763.46 5419977.72 330.43 198
497763.01 5419976.96 330.7 157
497763.01 5419977.48 330.59 139
497764.06 5419978.06 330.27 147
497763.01 5419977.22 330.64 147
497764.07 5419977.78 330.35 194
497762.83 5419979.04 330.16 187
497763.46 5419977.98 330.41 154
497764.84 5419977.56 330.33 120
497764.7 5419977.71 330.29 202
497763.6 5419977.54 330.49 120
497763.47 5419977.47 330.51 193
497764.2 5419978.43 330.15 131
497764.71 5419977.47 330.36 167
497764.71 5419977.22 330.44 139
497762.83 5419978.78 330.2 206
497764.2 5419978.17 330.25 153
497763.47 5419977.24 330.6 154
497764.83 5419978.07 330.17 138
497764.08 5419977.22 330.53 162
497764.22 5419977.31 330.45 136
497764.21 5419977.88 330.33 148
497763.44 5419978.97 330.12 166
497764.69 5419977.97 330.23 182
497763.59 5419977.81 330.41 169
497762.84 5419978.55 330.31 157
497763.48 5419976.99 330.64 193
497763.57 5419978.85 330.12 163
497764.19 5419978.72 330.07 49
497764.69 5419978.23 330.19 183
497763 5419977.74 330.51 143
497762.86 5419977.55 330.57 155
497763 5419978 330.43 140
497762.99 5419978.27 330.36 154
497762.86 5419977.31 330.63 189
497764.09 5419976.95 330.6 175
497762.26 5419976.34 330.99 143
497762.39 5419976.55 330.9 161
497761.78 5419975.26 331.34 131
497762.39 5419976.81 330.84 155
497762.4 5419975.78 331.1 165
497761.15 5419975.56 331.32 171
497762.25 5419976.82 330.83 206
497761.13 5419976.58 331.02 169
497760.99 5419975.98 331.22 182
497762.42 5419975.02 331.33 157
497760.97 5419976.71 331.03 179
497761.63 5419975.74 331.2 174
497762.27 5419975.86 331.12 222
497762.41 5419975.27 331.26 161
497762.28 5419975.13 331.29 228
497762.39 5419976.29 330.97 135
497761.63 5419975.5 331.28 199
497761.77 5419976.29 331.05 135
497760.99 5419975.74 331.3 182
497761.15 5419975.82 331.25 155
497761.13 5419976.84 330.97 146
497761.62 5419975.98 331.16 171
497762.41 5419975.53 331.2 153
497761.61 5419976.7 330.94 177
497761.76 5419976.8 330.9 153
497761.61 5419976.46 331.02 189
497761.62 5419976.22 331.09 185
497762.4 5419976.02 331.03 165
497760.98 5419976.47 331.1 161
497761.14 5419976.08 331.2 155
497761.14 5419976.34 331.13 166
497761.78 5419975.52 331.26 138
497760.98 5419976.23 331.17 159
497761.78 5419975.77 331.19 171
497762.26 5419976.09 331.04 178
497761.77 5419976.03 331.13 154
497762.27 5419975.61 331.18 162
497762.27 5419975.37 331.24 189
497761.76 5419976.55 330.97 154
497762.25 5419976.58 330.9 187
497762.27 5419979.67 327.99 135
497762.25 5419980.16 327.7 139
497762.76 5419979.23 328.09 167
497761.64 5419979.94 328.02 128
497761.65 5419979.68 328.15 115
497762.12 5419979.74 327.98 154
497760.85 5419980.12 328.08 162
497761.03 5419979.75 328.26 143
497761.65 5419979.45 328.31 124
497762.27 5419979.41 328.12 136
497761.63 5419980.18 327.85 139
497760.84 5419980.36 327.96 153
497761.47 5419980.34 327.79 159
497762.11 5419980.21 327.71 169
497761.49 5419979.64 328.23 167
497761 5419980.75 327.69 146
497762.73 5419979.93 327.69 165
497760.86 5419979.89 328.24 154
497762.14 5419979.27 328.25 175
497762.13 5419979.51 328.12 179
497761.62 5419980.66 327.49 1
497762.73 5419980.14 327.47 1
497761.01 5419980.25 327.98 126
497762.28 5419979.17 328.28 136
497761.49 5419979.87 328.08 142
497762.26 5419979.91 327.85 143
497761.63 5419980.44 327.72 134
497760.83 5419980.83 327.7 138
497762.74 5419979.71 327.86 154
497761.02 5419980 328.13 157
497762.12 5419979.97 327.83 197
497761.46 5419980.58 327.67 153
497761.01 5419980.5 327.83 142
497760.84 5419980.6 327.84 135
497762.75 5419979.47 327.98 165
497761.48 5419980.1 327.93 170
497762.1 5419980.44 327.55 2
497765.85 5419977.75 328.21 171
497766.58 5419977.82 327.97 38
497767.08 5419977.17 328.23 175
497766.03 5419976.85 328.69 135
497766.02 5419977.11 328.57 124
497765.22 5419978.59 327.88 177
497765.41 5419977.7 328.33 140
497765.88 5419976.99 328.64 179
497765.4 5419977.95 328.22 140
497766.59 5419977.57 328.1 154
497765.43 5419976.97 328.77 151
497765.86 5419977.49 328.35 157
497766.48 5419977.54 328.17 142
497766.48 5419977.31 328.28 165
497766 5419977.85 328.11 142
497765.39 5419978.19 328.07 144
497767.07 5419977.42 328.09 179
497766.62 5419976.85 328.56 120
497765.21 5419979.04 327.55 40
497765.22 5419978.82 327.73 173
497767.22 5419977.44 328.04 146
497766.47 5419977.77 328.06 148
497765.26 5419977.43 328.52 163
497766.6 5419977.33 328.25 135
497765.28 5419976.98 328.82 167
497765.23 5419978.36 328.01 134
497765.27 5419977.21 328.67 183
497766.49 5419977.09 328.43 159
497767.24 5419976.93 328.35 127
497765.84 5419978 328.06 179
497767.09 5419976.92 328.4 155
497765.99 5419978.09 327.9 34
497766 5419977.6 328.24 147
497765.24 5419978.12 328.13 171
497765.26 5419977.67 328.43 157
497766.61 5419977.1 328.41 135
497766.01 5419977.36 328.43 148
497765.87 5419977.23 328.5 177
497765.37 5419978.92 327.63 123
497766.5 5419976.88 328.55 148
497765.38 5419978.68 327.77 64
497767.23 5419977.19 328.2 132
497765.42 5419977.45 328.48 158
497765.25 5419977.89 328.27 173
497765.42 5419977.23 328.64 143
497762.88 5419980.04 327.6 69
497764.59 5419979.13 327.71 170
497764.72 5419979.31 327.52 2
497764.09 5419979.52 327.57 52
497763.34 5419979.61 327.72 167
497763.49 5419979.33 327.89 154
497762.9 5419979.55 327.89 139
497763.35 5419979.38 327.86 175
497762.89 5419979.79 327.74 126
497763.95 5419979.43 327.69 155
497763.34 5419979.84 327.58 69
497764.1 5419979.26 327.76 143
497763.96 5419979.17 327.85 159
497763.36 5419979.15 328.03 165
497763.47 5419979.82 327.54 6
497763.48 5419979.58 327.71 140
497762.9 5419979.29 328.03 131
497764.58 5419979.35 327.52 2
497764.11 5419978.99 327.91 139
497763.98 5419978.63 328.14 155
497764.74 5419978.58 328.02 142
497763.37 5419978.68 328.27 181
497764.61 5419978.43 328.14 173
497764.76 5419978.09 328.3 140
497764.13 5419978.48 328.24 132
497762.92 5419978.82 328.35 37
497763.99 5419978.38 328.3 143
497764.12 5419978.74 328.07 131
497764.73 5419979.06 327.7 136
497763.5 5419979.08 328.01 143
497763.97 5419978.91 328.01 161
497764.8 5419976.88 329.02 151
497764.6 5419978.66 327.97 162
497762.91 5419979.06 328.23 143
497764.74 5419978.82 327.88 146
497763.37 5419978.91 328.14 169
497763.51 5419978.59 328.3 123
497763.5 5419978.84 328.16 140
497764.59 5419978.89 327.85 179
497764.62 5419978.19 328.27 179
497764.75 5419978.33 328.16 119
497765.51 5419974.6 330.14 158
497767.29 5419975.39 329.23 154
497765.91 5419975.98 329.23 171
497766.65 5419975.89 329.11 124
497766.08 5419975.37 329.56 134
497766.69 5419974.71 329.77 147
497765.92 5419975.74 329.37 167
497767.16 5419974.7 329.67 170
497765.95 5419974.76 329.95 174
497766.66 5419975.42 329.37 143
497766.09 5419975.12 329.71 139
497766.56 5419975.13 329.55 173
497765.5 5419974.84 330.03 135
497766.54 5419975.78 329.19 161
497765.45 5419976.26 329.2 144
497766.67 5419975.18 329.54 136
497766.55 5419975.35 329.44 148
497767.14 5419975.42 329.22 181
497766.66 5419975.66 329.24 140
497767.3 5419975.14 329.39 132
497766.57 5419974.93 329.71 143
497765.48 5419975.3 329.73 148
497765.31 5419976.09 329.33 179
497765.93 5419975.5 329.53 181
497765.32 5419975.63 329.58 169
497765.35 5419974.75 330.1 157
497767.15 5419975.18 329.38 166
497765.46 5419976.02 329.34 154
497766.55 5419975.57 329.32 167
497766.07 5419975.62 329.42 146
497766.09 5419974.88 329.83 130
497765.94 5419975.24 329.65 171
497765.3 5419976.31 329.22 158
497765.34 5419975.19 329.86 158
497767.13 5419975.69 329.11 151
497765.32 5419975.86 329.48 151
497765.49 5419975.06 329.87 151
497767.16 5419974.95 329.53 178
497766.06 5419975.85 329.26 127
497765.48 5419975.54 329.61 144
497765.33 5419975.41 329.69 173
497765.94 5419974.99 329.8 173
497766.1 5419974.63 329.98 132
497765.34 5419974.97 329.97 175
497766.05 5419976.12 329.16 122
497766.57 5419974.71 329.82 154
497765.47 5419975.78 329.46 126
497766.68 5419974.95 329.65 130
497768.46 5419975.47 328.86 151
497767.86 5419976.01 328.72 126
497767.74 5419975.85 328.83 167
497768.43 5419976.19 328.44 151
497768.44 5419975.95 328.6 132
497768.45 5419975.71 328.72 142
497767.88 5419975.53 329 147
497767.76 5419975.41 329.09 153
497768.91 5419976.02 328.41 165
497768.32 5419975.52 328.85 170
497768.33 5419975.31 329.01 171
497767.75 5419975.63 328.95 174
497768.29 5419976.43 328.34 166
497768.93 5419975.57 328.7 76
497767.85 5419976.26 328.61 138
497768.28 5419976.67 328.25 170
497768.92 5419975.8 328.57 143
497769.05 5419976.2 328.29 115
497768.9 5419976.24 328.29 140
497768.88 5419976.7 328.02 163
497767.72 5419976.55 328.47 158
497769.03 5419976.69 328.01 108
497767.71 5419976.76 328.3 186
497769.04 5419976.44 328.13 128
497767.83 5419976.73 328.31 148
497767.84 5419976.49 328.46 144
497768.42 5419976.68 328.2 132
497768.42 5419976.43 328.32 154
497768.31 5419975.76 328.74 171
497768.47 5419975.24 329.01 134
497767.87 5419975.77 328.87 147
497768.3 5419975.99 328.63 174
497767.72 5419976.31 328.56 167
497768.89 5419976.47 328.16 135
497767.73 5419976.09 328.7 167
497768.3 5419976.2 328.48 174
497769.06 5419975.97 328.43 93
497762.83 5419979.29 330.09 111
497764.11 5419975.84 330.91 166
497763.05 5419975.16 331.2 157
497763.51 5419975.3 331.12 201
497764.21 5419975.65 329.93 112
497763.64 5419974.97 331.18 162
497764.67 5419976.58 329.21 173
497763.63 5419975.99 330.91 195
497763.5 5419975.79 331 178
497763.64 5419975.23 331.13 177
497762.91 5419974.9 331.32 197
497764.23 5419975.13 330.18 127
497764.68 5419976.13 329.48 159
497763.04 5419975.42 331.13 171
497763.51 5419975.06 331.2 174
497764.24 5419974.63 330.48 138
497763.51 5419975.54 331.06 190
497764.85 5419974.98 330.11 147
497763.03 5419975.94 331.02 99
497763.64 5419974.65 331.05 120
497764.09 5419975.04 330.26 166
497763.04 5419975.71 331.18 108
497762.87 5419976.82 330.75 166
497764.23 5419976.77 330.64 154
497763.49 5419976.26 330.86 197
497764.09 5419976.66 330.66 166
497764.86 5419974.74 330.24 155
497763.02 5419976.7 330.78 144
497764.23 5419976.48 330.71 163
497762.88 5419976.34 330.93 179
497764.08 5419975.29 330.12 158
497764.69 5419975.89 329.59 163
497762.91 5419975.13 331.24 210
497762.9 5419975.37 331.18 167
497762.89 5419976.09 330.96 167
497764.82 5419976.15 329.41 146
497763.52 5419974.82 331.26 181
497763.02 5419976.44 330.84 142
497762.89 5419975.88 331.11 110
497764.1 5419976.1 330.82 178
497764.8 5419976.64 329.15 138
497763.49 5419976.51 330.79 163
497763.48 5419976.74 330.72 198
497764.72 5419974.99 330.12 167
497764.84 5419975.44 329.82 135
497763.61 5419976.76 330.69 155
497764.85 5419975.21 329.95 134
497762.9 5419975.61 331.11 170
497763.62 5419976.5 330.77 142
497764.1 5419976.38 330.73 190
497762.88 5419976.58 330.84 201
497764.71 5419975.22 329.98 159
497764.24 5419976.22 330.79 144
497763.64 5419975.48 331.07 147
497764.22 5419975.38 330.04 143
497763.62 5419976.25 330.84 154
497764.83 5419975.68 329.68 147
497764.73 5419974.78 330.24 183
497764.68 5419976.35 329.36 169
497764.7 5419975.67 329.74 165
497763.49 5419976.01 330.92 202
497764.71 5419975.44 329.86 177
497763.63 5419975.74 331 147
497764.23 5419974.88 330.33 139
497764.81 5419976.39 329.28 136
497763.05 5419974.93 331.3 154
497764.82 5419975.92 329.55 139
497763.03 5419976.19 330.92 166
497764.1 5419974.79 330.41 165
497762.22 5419978.06 330.51 189
497761.74 5419977.85 330.64 144
497761.1 5419978.95 330.4 155
497761.57 5419978.67 330.42 174
497762.23 5419977.8 330.57 159
497761.59 5419977.43 330.73 183
497762.37 5419977.85 330.55 146
497761.73 5419978.63 330.4 158
497761.72 5419978.9 330.34 148
497761.58 5419978.42 330.48 162
497760.94 5419978.42 330.55 175
497761.1 5419978.68 330.48 150
497760.96 5419977.44 330.83 174
497761.75 5419977.06 330.83 157
497761.59 5419977.93 330.62 181
497762.21 5419979.05 330.23 209
497762.36 5419978.11 330.47 131
497760.97 5419976.95 330.96 158
497761.73 5419978.37 330.49 136
497762.38 5419977.33 330.69 154
497761.58 5419978.17 330.55 181
497762.22 5419978.56 330.37 178
497761.6 5419977.19 330.81 174
497762.35 5419978.64 330.33 165
497762.23 5419977.56 330.64 206
497760.94 5419978.67 330.49 165
497761.11 5419978.41 330.53 170
497762.22 5419978.29 330.4 212
497760.97 5419977.2 330.91 173
497761.59 5419977.68 330.68 173
497761.12 5419977.62 330.75 136
497760.95 5419978.18 330.63 185
497760.94 5419978.93 330.43 183
497762.24 5419977.32 330.71 182
497761.11 5419977.89 330.71 147
497761.12 5419977.37 330.82 191
497761.11 5419978.15 330.61 173
497762.38 5419977.06 330.76 157
497762.36 5419978.38 330.42 171
497760.95 5419977.94 330.71 153
497762.37 5419977.59 330.62 161
497761.75 5419977.58 330.71 144
497761.13 5419977.11 330.9 157
497761.74 5419978.1 330.54 142
497761.57 5419978.92 330.33 182
497761.6 5419976.95 330.89 181
497760.96 5419977.68 330.76 162
497762.35 5419978.9 330.26 151
497762.24 5419977.07 330.78 158
497761.75 5419977.32 330.76 136
497762.21 5419978.8 330.3 201
497760.92 5419979.91 330.14 177
497761.56 5419979.41 330.21 173
497761.72 5419979.15 330.23 146
497760.93 5419979.16 330.34 189
497760.92 5419979.66 330.21 181
497761.55 5419979.67 330.14 187
497762.2 5419979.55 330.1 130
497760.91 5419980.16 330.07 63
497761.56 5419979.16 330.26 165
497761.55 5419979.92 330.05 5
497761.09 5419979.21 330.32 174
497761.71 5419979.69 330.11 159
497761.09 5419979.74 330.17 140
497762.34 5419979.44 330.13 178
497760.93 5419979.42 330.29 158
497761.08 5419980.01 330.1 171
497761.09 5419979.47 330.22 186
497762.2 5419979.3 330.16 179
497762.34 5419979.16 330.18 135
497761.72 5419979.42 330.19 132
497766.05 5419976.36 329 140
497767.09 5419976.66 328.52 166
497767.27 5419975.9 328.93 135
497765.44 5419976.74 328.93 143
497766.64 5419976.13 328.97 150
497765.29 5419976.53 329.06 167
497765.89 5419976.74 328.82 170
497767.11 5419976.17 328.8 189
497767.28 5419975.64 329.09 124
497765.9 5419976.24 329.09 158
497766.63 5419976.37 328.82 136
497767.25 5419976.66 328.49 150
497766.51 5419976.65 328.67 161
497765.29 5419976.76 328.95 175
497766.52 5419976.22 328.94 148
497765.45 5419976.5 329.05 148
497765.89 5419976.49 328.96 165
497766.52 5419976.44 328.82 157
497766.63 5419976.61 328.69 146
497767.27 5419976.16 328.8 142
497767.1 5419976.43 328.67 183
497766.53 5419976 329.06 157
497766.04 5419976.6 328.83 146
497767.26 5419976.42 328.65 154
497767.12 5419975.92 328.96 165
497767.82 5419977.24 328.06 122
497767.83 5419976.97 328.14 136
497768.27 5419976.88 328.09 175
497768.41 5419976.92 328.06 144
497767.7 5419976.99 328.17 153
497767.69 5419977.23 328.05 166
497768.26 5419977.1 327.91 1
497762.76 5419979.01 328.26 162
497763.58 5419972.06 332.18 179
497763.1 5419970.2 331.61 93
497762.98 5419971.11 332.13 115
497764.34 5419970.86 332.33 89
497764.95 5419972 331.84 130
497763.11 5419970.84 331.99 91
497762.98 5419971.73 332.54 142
497763.59 5419971.86 332.32 175
497762.97 5419972.16 332.3 108
497763.71 5419971.03 332.27 96
497764.97 5419970.24 332.12 95
497763.59 5419971.64 332.42 153
497763.58 5419970.19 331.74 124
497764.85 5419971.09 332.42 154
497763.71 5419970.38 331.89 87
497764.32 5419972.16 331.94 135
497763.1 5419970.53 331.81 88
497764.82 5419971.94 331.92 169
497763.72 5419971.59 332.42 132
497764.84 5419971.3 332.29 191
497764.85 5419970.87 332.51 120
497764.33 5419971.67 332.19 138
497763.11 5419971.17 332.2 92
497762.98 5419971.41 332.32 115
497762.99 5419972.06 332.77 29
497763.59 5419970.81 332.14 108
497764.18 5419972.32 331.86 157
497764.2 5419971.58 332.3 167
497763.7 5419972.26 332.03 128
497764.83 5419971.73 332.05 159
497764.98 5419970.56 332.29 97
497764.97 5419971.11 332.38 139
497763.1 5419972.24 332.23 5
497763.57 5419972.28 332.08 151
497763.6 5419971.42 332.52 114
497764.34 5419971.43 332.34 140
497763.59 5419970.5 331.94 115
497763.7 5419972.04 332.14 158
497762.97 5419970.21 331.62 97
497764.98 5419970.89 332.53 173
497764.19 5419972.07 332 173
497764.21 5419971.05 332.42 99
497763.72 5419971.35 332.48 89
497763.12 5419971.84 332.64 67
497764.96 5419971.55 332.13 139
497764.21 5419971.35 332.45 150
497764.97 5419971.33 332.25 143
497764.94 5419972.22 331.73 139
497764.81 5419972.15 331.79 163
497764.95 5419971.78 332 132
497764.19 5419971.83 332.16 173
497763.11 5419971.49 332.36 97
497764.84 5419970.24 332.08 123
497764.35 5419971.2 332.53 166
497764.85 5419970.55 332.29 120
497763.59 5419971.11 332.3 119
497762.97 5419970.5 331.77 106
497764.84 5419971.52 332.17 162
497764.21 5419970.69 332.2 102
497764.2 5419970.35 331.99 107
497763.71 5419971.82 332.3 150
497763.71 5419970.7 332.06 96
497764.34 5419970.51 332.12 89
497762.97 5419970.8 331.95 110
497764.33 5419970.15 331.9 88
497764.32 5419971.92 332.07 131
497763.05 5419966.71 329.51 87
497764.81 5419967.52 330.48 107
497763.66 5419966.89 329.8 91
497764.29 5419967.39 330.25 85
497764.93 5419967.7 330.61 93
497763.05 5419966.09 329.15 88
497763.06 5419967.33 329.9 89
497762.94 5419967.79 330.15 102
497763.54 5419966.91 329.8 100
497762.93 5419966.89 329.6 99
497764.93 5419967.07 330.23 83
497764.8 5419966.92 330.12 106
497762.93 5419967.48 329.94 107
497763.67 5419967.83 330.33 96
497764.93 5419967.38 330.42 88
497764.79 5419966.31 329.74 110
497764.81 5419967.82 330.67 110
497763.55 5419967.19 329.95 123
497763.54 5419966.31 329.44 110
497763.55 5419967.79 330.3 114
497764.27 5419966.01 329.42 81
497764.8 5419966.62 329.95 111
497762.92 5419966.3 329.25 97
497762.92 5419966.02 329.12 102
497764.81 5419967.22 330.3 100
497763.05 5419966.39 329.33 89
497764.16 5419967.23 330.13 106
497764.15 5419966.19 329.51 107
497763.65 5419965.95 329.21 92
497763.66 5419966.58 329.61 88
497764.15 5419966.53 329.72 104
497763.07 5419967.65 330.08 91
497764.3 5419967.73 330.46 88
497764.92 5419966.44 329.85 46
497762.92 5419966.6 329.44 102
497763.66 5419967.2 329.97 92
497763.54 5419966.61 329.62 114
497764.16 5419966.89 329.95 103
497764.27 5419965.67 329.23 75
497762.93 5419967.19 329.78 116
497764.92 5419966.76 330.05 76
497764.29 5419967.04 330.04 87
497763.06 5419967.02 329.71 87
497763.67 5419967.51 330.16 89
497764.28 5419966.35 329.63 79
497763.65 5419966.27 329.43 93
497764.79 5419966.03 329.58 17
497763.55 5419967.49 330.13 107
497764.28 5419966.7 329.85 81
497764.17 5419967.56 330.33 100
497764.15 5419965.84 329.29 104
497763.53 5419966.02 329.25 102
497766.78 5419971.95 331.39 153
497765.47 5419971.31 332.13 185
497766.7 5419971.19 331.9 143
497766.2 5419971.54 331.79 131
497766.04 5419972.11 331.53 162
497766.23 5419970.61 332.34 151
497766.67 5419971.99 331.41 157
497766.8 5419971.28 331.78 155
497765.61 5419971.19 332.18 146
497765.49 5419970.39 332.37 114
497766.08 5419970.92 332.21 178
497765.45 5419971.94 331.76 173
497765.62 5419970.97 332.31 148
497765.63 5419970.74 332.42 143
497766.22 5419971.08 332.1 155
497766.18 5419972.24 331.38 134
497766.08 5419971.15 332.06 162
497766.24 5419970.4 332.52 159
497765.61 5419971.41 332.03 140
497765.62 5419970.16 332.23 92
